# .PCD v0.7 - Point Cloud Data file format
VERSION 0.7
FIELDS x y z rgb
SIZE 4 4 4 4
TYPE F F F F
COUNT 1 1 1 1
WIDTH 1005
HEIGHT 1
VIEWPOINT 0 0 0 1 0 0 0
POINTS 1005
DATA ascii
-0.53873491 0.29438841 0.91072202 4.7041183e-39
-0.53850859 0.295627 0.9145537 4.5204459e-39
-0.5366317 0.29596674 0.91560477 4.4282503e-39
-0.53613704 0.2970756 0.91903508 4.1516634e-39
-0.31160471 0.25134954 0.77757668 3.9662043e-39
-0.31023258 0.25195658 0.77945459 4.4271853e-39
-0.30908778 0.25275785 0.78193343 4.4271853e-39
-0.30787447 0.25351384 0.78427219 4.8881634e-39
-0.30544689 0.25327358 0.78352886 5.8101197e-39
-0.30285007 0.25288859 0.7823379 6.2710951e-39
-0.30048826 0.25269577 0.78174138 6.732076e-39
-0.29739231 0.25187844 0.77921289 7.28561e-39
-0.29450402 0.25122648 0.77719593 8.1157266e-39
-0.29176766 0.25069562 0.77555364 8.6685444e-39
-0.28951237 0.25057334 0.77517539 9.0373269e-39
-0.28706771 0.25028419 0.77428091 9.8670876e-39
-0.2845875 0.24995951 0.77327645 1.0696488e-38
-0.28209862 0.24962234 0.77223337 1.0512097e-38
-0.27958509 0.24925812 0.7711066 1.0973075e-38
-0.27674884 0.24859846 0.76906586 1.1249662e-38
-0.27452022 0.24847874 0.76869553 1.1249662e-38
-0.2725763 0.24861687 0.76912284 1.1802836e-38
-0.27006754 0.24823792 0.76795053 1.1987224e-38
-0.26744097 0.24774393 0.76642233 1.1895029e-38
-0.26508448 0.24749431 0.76565009 1.2540401e-38
-0.2635588 0.24802262 0.76728445 1.2079423e-38
-0.26171413 0.24825673 0.76800871 1.2540401e-38
-0.25961563 0.24825193 0.76799387 1.2540398e-38
-0.25701687 0.24776477 0.76648676 1.2171615e-38
-0.25432253 0.24717675 0.76466769 1.1710637e-38
-0.25178286 0.24673061 0.76328748 1.171064e-38
-0.24963787 0.24666697 0.76309061 1.2079423e-38
-0.24776033 0.24686874 0.76371485 1.1803199e-38
-0.2454536 0.24664269 0.76301551 1.198759e-38
-0.24316622 0.24643239 0.76236492 1.1618807e-38
-0.24098098 0.24632286 0.76202607 1.2079423e-38
-0.23831783 0.24571869 0.76015699 1.2171618e-38
-0.23617174 0.24564168 0.75991875 1.1895031e-38
-0.23422427 0.24577174 0.76032114 1.2354212e-38
-0.23229308 0.24592136 0.76078397 1.1985429e-38
-0.23006135 0.24575263 0.76026201 1.2171618e-38
-0.22740915 0.2451276 0.75832844 1.2171618e-38
-0.22519524 0.24496788 0.75783432 1.2079423e-38
-0.22279555 0.24460123 0.75670004 1.2263814e-38
-0.22074702 0.24461688 0.75674844 1.2079423e-38
-0.21889246 0.24484977 0.75746894 1.2079423e-38
-0.21679719 0.2448153 0.75736231 1.2171615e-38
-0.21468848 0.24476485 0.7572062 1.2263811e-38
-0.21222776 0.24430817 0.75579345 1.2080139e-38
-0.21012729 0.24426134 0.75564855 1.1895747e-38
-0.20783621 0.2439898 0.75480849 1.235637e-38
-0.20588039 0.24411035 0.75518143 1.2079783e-38
-0.20348251 0.24370389 0.75392401 1.198759e-38
-0.2015021 0.24379422 0.75420344 1.1895394e-38
-0.19901532 0.24326745 0.75257385 1.1895391e-38
-0.19687708 0.24316019 0.75224203 1.2080139e-38
-0.19494542 0.24330851 0.75270087 1.226453e-38
-0.19328202 0.24379836 0.75421625 1.1987943e-38
-0.19105434 0.24357931 0.75353861 1.1895747e-38
-0.18863633 0.24311021 0.75208741 1.2172334e-38
-0.18636237 0.24281849 0.75118494 1.2080139e-38
-0.18441316 0.24294814 0.75158602 1.1895747e-38
-0.18220814 0.24273989 0.75094175 1.2080139e-38
-0.18007883 0.24262892 0.75059849 1.2080139e-38
-0.1778513 0.24238153 0.74983317 1.2080139e-38
-0.17569941 0.24223268 0.74937266 1.1987943e-38
-0.17353188 0.2420585 0.74883384 1.1987587e-38
-0.17134772 0.24185674 0.74820966 1.2171978e-38
-0.16929321 0.24183528 0.74814326 1.1987943e-38
-0.16729905 0.24190058 0.74834526 1.2080139e-38
-0.16515258 0.24174455 0.74786258 1.1895391e-38
-0.16299157 0.24156305 0.7473011 1.2264174e-38
-0.16056886 0.24098422 0.7455104 1.2356009e-38
-0.15853406 0.24098018 0.74549794 1.2079423e-38
-0.15630578 0.2406781 0.7445634 1.2171618e-38
-0.15412226 0.24043794 0.74382043 1.2263811e-38
-0.15178558 0.23994921 0.7423085 1.2171615e-38
-0.14985406 0.24009645 0.742764 1.207942e-38
-0.14792448 0.24025087 0.74324173 1.2263811e-38
-0.14592513 0.24029468 0.74337727 1.2170539e-38
-0.14379293 0.24011786 0.74283028 1.2356009e-38
-0.14188112 0.24030933 0.74342257 1.1987587e-38
-0.13990682 0.24039894 0.74369979 1.1895747e-38
-0.13781263 0.24028213 0.74333847 1.226453e-38
-0.13558643 0.23992826 0.74224371 1.2172334e-38
-0.13317803 0.23923637 0.74010324 1.2263811e-38
-0.13114633 0.23921029 0.7400226 1.2448202e-38
-0.12912543 0.23920339 0.74000126 1.2448202e-38
-0.12716004 0.23930077 0.7403025 1.2631515e-38
-0.12514353 0.23930351 0.74031097 1.2539319e-38
-0.12299975 0.23905899 0.73955452 1.2263814e-38
-0.12072537 0.23854826 0.73797452 1.2264174e-38
-0.11836294 0.23784328 0.73579359 1.2171978e-38
-0.11641424 0.23795973 0.73615384 1.235637e-38
-0.11452115 0.23819588 0.73688442 1.2079783e-38
-0.11284545 0.23890074 0.73906493 1.2171978e-38
-0.11085867 0.23896064 0.73925024 1.2264174e-38
-0.1086493 0.23853408 0.73793066 1.2448565e-38
-0.10650276 0.23823196 0.736996 1.2079783e-38
-0.10437142 0.23795289 0.73613268 1.235637e-38
-0.10233841 0.23789147 0.73594266 1.2448565e-38
-0.10023631 0.23766375 0.73523819 1.235637e-38
-0.098092325 0.2373254 0.73419148 1.226453e-38
-0.096065342 0.23726195 0.7339952 1.2448921e-38
-0.093988195 0.23706926 0.73339909 1.235637e-38
-0.091967009 0.2370124 0.7332232 1.2264177e-38
-0.089920796 0.2368871 0.73283553 1.2448568e-38
-0.087904759 0.2368374 0.73268181 1.2264174e-38
-0.085960649 0.2369837 0.73313439 1.2448565e-38
-0.083964482 0.23699002 0.73315394 1.2540401e-38
-0.081853926 0.23666593 0.73215133 1.2631517e-38
-0.079849839 0.23664115 0.73207468 1.2540401e-38
-0.077929109 0.23686847 0.73277789 1.2448205e-38
-0.075907685 0.23679364 0.73254639 1.2448205e-38
-0.073880941 0.2366977 0.73224962 1.2448205e-38
-0.071746677 0.23624241 0.73084116 1.235637e-38
-0.069739088 0.23619017 0.73067951 1.235637e-38
-0.067663968 0.23589937 0.7297799 1.2448565e-38
-0.065583736 0.23557262 0.72876906 1.263224e-38
-0.06348782 0.23516735 0.72751534 1.2540045e-38
-0.061560012 0.23537874 0.72816926 1.2540401e-38
-0.05967468 0.23577201 0.72938591 1.2448205e-38
-0.057782147 0.23616298 0.73059541 1.2724792e-38
-0.055795275 0.2361825 0.73065579 1.2263814e-38
-0.05374296 0.23591621 0.72983199 1.263224e-38
-0.051679879 0.23558037 0.72879303 1.2908827e-38
-0.049587086 0.2350768 0.7272352 1.2447849e-38
-0.04761143 0.23510975 0.72733712 1.2540045e-38
-0.045553319 0.23472069 0.72613353 1.2540045e-38
-0.043516245 0.2344096 0.72517115 1.263224e-38
-0.041539639 0.23441014 0.72517282 1.2264177e-38
-0.039625507 0.23478088 0.72631973 1.2724436e-38
-0.037666116 0.23490837 0.72671413 1.2540401e-38
-0.035653941 0.23470254 0.72607738 1.2816988e-38
-0.033644564 0.234492 0.72542608 1.2632956e-38
-0.03165609 0.23440996 0.72517222 1.2632956e-38
-0.029655129 0.23421836 0.72457951 1.2448565e-38
-0.027680872 0.23422539 0.72460127 1.2724792e-38
-0.025684306 0.23403023 0.72399753 1.2540401e-38
-0.02369222 0.2338468 0.72343004 1.263224e-38
-0.021692749 0.23355056 0.72251362 1.2724436e-38
-0.019704215 0.23332466 0.72181475 1.2816632e-38
-0.017721405 0.23312391 0.72119373 1.2816632e-38
-0.015750527 0.23304966 0.72096401 1.2632959e-38
-0.013806671 0.23341103 0.72208196 1.2725155e-38
-0.011840968 0.23346186 0.7222392 1.2725155e-38
-0.0098634092 0.23325254 0.72159165 1.2632959e-38
-0.0078801513 0.23277064 0.72010082 1.2817351e-38
-0.0059148408 0.23267499 0.71980494 1.2632959e-38
-0.0039510578 0.23257434 0.71949357 1.2632959e-38
-0.0019866563 0.23220299 0.71834475 1.2817353e-38
-2.8538314e-05 0.23199835 0.71771169 1.2725158e-38
0.0019264446 0.23183177 0.71719635 1.2817353e-38
0.0038787462 0.23167284 0.71670467 1.2909549e-38
0.0058267112 0.23144813 0.7160095 1.3001026e-38
0.0077674752 0.23112191 0.71500033 1.2724436e-38
0.0097065205 0.23088568 0.71426952 1.3092498e-38
0.011664835 0.23111016 0.71496397 1.2816632e-38
0.013623096 0.23126948 0.71545684 1.2724439e-38
0.015563811 0.23112829 0.71502006 1.2816634e-38
0.017508002 0.23106444 0.71482253 1.2816632e-38
0.019463055 0.23114236 0.71506357 1.2724436e-38
0.021434499 0.23138304 0.71580815 1.2816632e-38
0.023314545 0.23067923 0.71363086 1.2816632e-38
0.025176857 0.22992189 0.71128792 1.2724436e-38
0.027119048 0.22995014 0.71137536 1.2816632e-38
0.029012749 0.22959094 0.71026409 1.2724436e-38
0.031001206 0.22997959 0.71146643 1.2816632e-38
0.032924637 0.2298685 0.71112275 1.2725155e-38
0.034947444 0.23042497 0.71284425 1.2817351e-38
0.036833633 0.23006949 0.71174455 1.2817353e-38
0.038758047 0.22997642 0.7114566 1.2909549e-38
0.040710282 0.23004942 0.71168244 1.3001745e-38
0.042652339 0.23006088 0.7117179 1.3001742e-38
0.044530794 0.2297432 0.71073514 1.2632959e-38
0.04636094 0.22921316 0.70909542 1.263224e-38
0.048254486 0.2290265 0.70851791 1.3185414e-38
0.050079949 0.22854346 0.70702362 1.2908827e-38
0.0519136 0.22813223 0.70575142 1.2816634e-38
0.053840622 0.22814603 0.7057941 1.3093221e-38
0.055804443 0.22830942 0.7062996 1.2816632e-38
0.057741046 0.22835428 0.70643836 1.3001023e-38
0.059539203 0.2278664 0.70492905 1.3001023e-38
0.06141473 0.22769587 0.70440149 1.2908827e-38
0.063332327 0.22768693 0.70437384 1.3093219e-38
0.065084852 0.2271025 0.70256585 1.327689e-38
0.067003615 0.22711499 0.70260447 1.3001023e-38
0.068945222 0.22720204 0.70287377 1.2724436e-38
0.071121633 0.22803727 0.70545763 1.2908827e-38
0.072975114 0.22782034 0.70478654 1.2908827e-38
0.074881241 0.22777466 0.70464528 1.3093219e-38
0.07645873 0.22675663 0.70149589 1.2908827e-38
0.078356594 0.22671527 0.70136791 1.3185414e-38
0.080100469 0.22624092 0.69990045 1.3001023e-38
0.082107276 0.22651401 0.70074528 1.3001023e-38
0.083961673 0.22636378 0.70028055 1.3001023e-38
0.08587525 0.22637624 0.70031905 1.327761e-38
0.087785535 0.22637968 0.70032972 1.3185414e-38
0.089589044 0.22611347 0.69950616 1.3093219e-38
0.091477208 0.22606756 0.69936413 1.3185414e-38
0.093330264 0.22593853 0.69896495 1.3093221e-38
0.09509626 0.22560811 0.69794279 1.3001026e-38
0.097070523 0.22577508 0.69845933 1.3093221e-38
0.098927215 0.2256674 0.6981262 1.3093221e-38
0.1010251 0.2261036 0.69947565 1.3093221e-38
0.10288806 0.22600761 0.6991787 1.3093937e-38
0.10466114 0.22572128 0.69829291 1.3001742e-38
0.10645577 0.22549081 0.69757992 1.3093937e-38
0.10789599 0.22453089 0.6946103 1.3093937e-38
0.10972904 0.22440748 0.69422853 1.3001745e-38
0.11144246 0.22404775 0.69311565 1.3277613e-38
0.11341453 0.22421135 0.69362175 1.3277613e-38
0.11532317 0.22424622 0.69372964 1.3277613e-38
0.11694732 0.22373572 0.69215035 1.3277613e-38
0.11886115 0.2237868 0.69230837 1.3277613e-38
0.12087633 0.22402415 0.69304264 1.3186136e-38
0.12308561 0.22460836 0.69484997 1.3370527e-38
0.12505263 0.22473952 0.6952557 1.3186136e-38
0.12686543 0.22459373 0.69480467 1.3462001e-38
0.12841052 0.22398522 0.69292223 1.3369805e-38
0.12973475 0.22301474 0.68991995 1.3369805e-38
0.13170049 0.223159 0.69036621 1.3462004e-38
0.13325939 0.2226195 0.68869722 1.3277613e-38
0.13537948 0.22301953 0.68993473 1.3369811e-38
0.13694105 0.22250107 0.68833083 1.3462007e-38
0.13883339 0.22252682 0.68841046 1.3554202e-38
0.14074901 0.2225887 0.68860191 1.3462004e-38
0.14270259 0.2227082 0.68897158 1.3462004e-38
0.14427082 0.22223099 0.68749529 1.3369805e-38
0.146029 0.22205484 0.68695039 1.327761e-38
0.14790541 0.22206071 0.68696851 1.3369805e-38
0.14987573 0.22220562 0.68741685 1.3646392e-38
0.15156139 0.22193018 0.68656468 1.3646392e-38
0.15326557 0.22168818 0.68581605 1.3646748e-38
0.15511607 0.22166115 0.68573242 1.3462357e-38
0.15700932 0.22169511 0.68583751 1.3646392e-38
0.1588071 0.22159506 0.68552798 1.3738588e-38
0.16057661 0.22145836 0.68510509 1.3830063e-38
0.16230214 0.22126482 0.68450636 1.3830063e-38
0.16398838 0.22102273 0.68375742 1.3922979e-38
0.16598475 0.22119939 0.68430394 1.3829707e-38
0.16792078 0.2212926 0.68459231 1.3829707e-38
0.16989458 0.22143298 0.68502659 1.3922259e-38
0.17109968 0.2205793 0.68238562 1.3830784e-38
0.17371154 0.22153807 0.68535167 1.3646392e-38
0.17911623 0.22600031 0.69915611 0
-0.59797376 0.28262985 0.8670342 2.122998e-39
-0.59566504 0.28265578 0.86711377 2.1226407e-39
-0.58750409 0.27989388 0.85864097 2.1226407e-39
-0.59060127 0.28249481 0.86661994 2.1226407e-39
-0.58979011 0.28323972 0.86890513 2.3073893e-39
-0.58799475 0.28351605 0.86975288 2.3073893e-39
-0.58351815 0.2824966 0.86662543 2.4917777e-39
-0.58115584 0.2824966 0.86662543 2.5839733e-39
-0.58002537 0.28309783 0.86846983 2.3995821e-39
-0.57806182 0.28329569 0.86907685 2.4917777e-39
-0.57982367 0.28532842 0.87531275 2.4917805e-39
-0.57680809 0.28501731 0.87435836 2.5839762e-39
-0.57285094 0.28423643 0.87196279 2.4914232e-39
-0.56854147 0.28327352 0.86900878 2.6765333e-39
-0.56867713 0.28452659 0.87285286 2.8609246e-39
-0.56629789 0.28452659 0.87285286 2.8609246e-39
-0.56601226 0.28558293 0.87609345 2.7687289e-39
-0.56490445 0.28623161 0.87808347 3.044597e-39
-0.56162274 0.28577965 0.876697 3.5048549e-39
-0.56159115 0.28698474 0.88039386 3.5970505e-39
-0.55786145 0.28630221 0.87830001 3.6892461e-39
-0.55956 0.28841168 0.88477135 3.965833e-39
-0.55705231 0.288362 0.88461894 3.8743576e-39
-0.55642754 0.28929085 0.8874684 3.7825193e-39
-0.55449313 0.28954393 0.88824481 3.9669106e-39
-0.55207193 0.28954393 0.88824481 4.5200844e-39
-0.54950291 0.28946611 0.88800603 4.4278859e-39
-0.54793215 0.28991571 0.88938534 5.0721764e-39
-0.54801893 0.29125026 0.89347941 4.888141e-39
-0.5469442 0.29197669 0.89570791 5.2565676e-39
-0.54578853 0.2926662 0.8978231 5.2565676e-39
-0.54438186 0.29322675 0.89954269 5.3487632e-39
-0.54448336 0.29460841 0.90378129 5.5331573e-39
-0.54265153 0.29495177 0.90483463 4.9807052e-39
-0.54144061 0.29563731 0.90693766 4.8885096e-39
-0.54369348 0.29822913 0.91488868 4.519727e-39
-0.54119968 0.29822913 0.91488868 3.8743576e-39
-0.54135311 0.29969466 0.9193846 4.2431402e-39
-0.5404889 0.30060783 0.92218596 4.3353358e-39
-0.53951997 0.30147105 0.92483407 3.8743604e-39
-0.2728633 0.24906169 0.76405591 3.3208377e-39
-0.27477822 0.25273865 0.77533591 0
-0.27088585 0.25305116 0.77629453 2.7676612e-39
-0.26842093 0.25272271 0.77528691 2.3988786e-39
-0.26700443 0.25338396 0.7773155 2.8605757e-39
-0.26525253 0.25373498 0.77839231 3.1368066e-39
-0.26020947 0.2529577 0.77600789 3.1364437e-39
-0.25719717 0.25207856 0.77331084 3.6896203e-39
-0.25433961 0.25133777 0.77103829 4.241715e-39
-0.25196069 0.25106156 0.77019095 8.483793e-39
-0.24980198 0.25100198 0.77000821 9.0373297e-39
-0.24763337 0.25093135 0.76979154 9.8670904e-39
-0.24523802 0.25062782 0.76886034 1.0051482e-38
-0.24276653 0.25024053 0.7676723 1.0512097e-38
-0.23980577 0.24933782 0.76490301 1.0788684e-38
-0.2376716 0.24928626 0.76474482 1.0973075e-38
-0.23562761 0.24932919 0.76487654 1.1064192e-38
-0.23351985 0.24930483 0.7648018 1.1709561e-38
-0.23117195 0.24902134 0.76393211 1.1895031e-38
-0.22878775 0.24869323 0.76292557 1.2171618e-38
-0.22635442 0.2483052 0.7617352 1.2079423e-38
-0.22398585 0.2479817 0.76074278 1.171064e-38
-0.22184113 0.24790229 0.76049918 1.2356009e-38
-0.21989864 0.24804951 0.7609508 1.2540401e-38
-0.21797667 0.2482229 0.76148272 1.1895029e-38
-0.21593864 0.24826619 0.76161551 1.1987224e-38
-0.21381772 0.24821408 0.76145566 1.1895747e-38
-0.21139227 0.24780399 0.76019758 1.2079783e-38
-0.2087874 0.24717335 0.75826299 1.1895391e-38
-0.20633844 0.24671653 0.75686157 1.2079786e-38
-0.20410497 0.24651074 0.75623029 1.1986874e-38
-0.2021699 0.24666482 0.75670296 1.2171265e-38
-0.1997997 0.24628574 0.75554001 1.1986871e-38
-0.19749793 0.24598396 0.75461423 1.2171618e-38
-0.19562161 0.24621131 0.75531167 1.207942e-38
-0.19393612 0.24668624 0.75676864 1.1987224e-38
-0.19170624 0.24647146 0.75610977 1.1802833e-38
-0.18922549 0.24592598 0.75443637 1.2263811e-38
-0.1871358 0.24588235 0.7543025 1.1987943e-38
-0.18511686 0.24593171 0.75445396 1.1803552e-38
-0.18277812 0.24555257 0.75329083 1.2080139e-38
-0.1805474 0.24531159 0.75255156 1.2171615e-38
-0.17836632 0.24513325 0.7520045 1.207942e-38
-0.17645286 0.24532287 0.75258619 1.207942e-38
-0.174255 0.2451169 0.75195432 1.2171618e-38
-0.17204452 0.24488804 0.75125223 1.1987224e-38
-0.16999397 0.24488407 0.75124007 1.2080139e-38
-0.16784044 0.24472985 0.75076693 1.1803552e-38
-0.16564478 0.24450962 0.75009137 1.1987943e-38
-0.16338459 0.24418747 0.74910307 1.2172334e-38
-0.16106983 0.24377455 0.74783635 1.1987943e-38
-0.15918487 0.24400988 0.74855828 1.226453e-38
-0.15699843 0.24378319 0.74786288 1.1987224e-38
-0.1547765 0.2434947 0.74697787 1.2263811e-38
-0.15229133 0.24277887 0.74478185 1.1987224e-38
-0.15028006 0.24280939 0.74487549 1.2539322e-38
-0.14831266 0.24291258 0.74519205 1.2263814e-38
-0.14624284 0.24284858 0.74499571 1.2171618e-38
-0.14419395 0.24281801 0.74490196 1.1895029e-38
-0.14241825 0.2432532 0.74623698 1.2356726e-38
-0.1404881 0.24343337 0.74678969 1.1987943e-38
-0.13827048 0.24311337 0.74580801 1.2264528e-38
-0.13610967 0.2428852 0.74510807 1.2080137e-38
-0.13392068 0.2425991 0.74423039 1.2264528e-38
-0.1318104 0.24244894 0.74376971 1.2172334e-38
-0.12978956 0.24246119 0.74380732 1.2080139e-38
-0.12770736 0.2423574 0.74348891 1.207942e-38
-0.12569822 0.24239112 0.74359238 1.2263811e-38
-0.12355742 0.2421679 0.74290758 1.2263814e-38
-0.12153012 0.24216342 0.74289382 1.2356009e-38
-0.11911389 0.24137065 0.74046183 1.2171978e-38
-0.1170285 0.24123254 0.74003816 1.2171978e-38
-0.11482928 0.24085082 0.7388671 1.235637e-38
-0.11297512 0.24119213 0.73991418 1.2080139e-38
-0.11099342 0.24126863 0.74014884 1.2171978e-38
-0.10896058 0.2412347 0.74004477 1.2171978e-38
-0.10676801 0.24083924 0.73883158 1.2171978e-38
-0.10462993 0.2405538 0.73795593 1.235637e-38
-0.10243853 0.24013221 0.73666263 1.2171978e-38
-0.10053501 0.24038211 0.7374292 1.2448565e-38
-0.098495901 0.24031134 0.73721212 1.2264174e-38
-0.096656539 0.24073516 0.73851228 1.2171978e-38
-0.094518684 0.24041773 0.73753852 1.2264174e-38
-0.092498273 0.24039176 0.73745883 1.2171978e-38
-0.090471402 0.24034745 0.73732287 1.235637e-38
-0.088437021 0.24028072 0.73711818 1.2264174e-38
-0.086440064 0.24031495 0.73722321 1.235637e-38
-0.084428713 0.24030982 0.73720747 1.235637e-38
-0.082332082 0.2400558 0.7364282 1.2264174e-38
-0.080361187 0.24016486 0.73676276 1.2356009e-38
-0.078357421 0.24017875 0.73680538 1.2356009e-38
-0.076281138 0.23996525 0.73615038 1.2263814e-38
-0.074152626 0.23957147 0.73494238 1.2448205e-38
-0.07203839 0.23920321 0.73381269 1.2079783e-38
-0.07000003 0.23907308 0.73341346 1.2264174e-38
-0.067968436 0.23895906 0.7330637 1.235637e-38
-0.06593693 0.23883848 0.73269379 1.263224e-38
-0.063925713 0.23878616 0.73253328 1.2263458e-38
-0.061955743 0.23888947 0.73285019 1.2540401e-38
-0.059941631 0.23882382 0.73264879 1.2540401e-38
-0.057902433 0.23865023 0.73211628 1.2448205e-38
-0.055974931 0.23894106 0.73300844 1.2540401e-38
-0.053943649 0.23879401 0.73255736 1.2632596e-38
-0.051986367 0.23897584 0.73311514 1.2540401e-38
-0.049805887 0.23810513 0.73044407 1.2355654e-38
-0.047837205 0.23821664 0.73078614 1.2447852e-38
-0.045747083 0.23770683 0.72922218 1.2540045e-38
-0.043708194 0.23742901 0.72836989 1.2448205e-38
-0.04167977 0.23718427 0.72761911 1.2540401e-38
-0.039732322 0.23739894 0.72827762 1.2448205e-38
-0.037784681 0.23763494 0.72900164 1.2448205e-38
-0.035806686 0.23769566 0.72918791 1.2632596e-38
-0.033773649 0.23737666 0.72820932 1.2540401e-38
-0.031746577 0.23706235 0.72724509 1.2632596e-38
-0.029703019 0.23657489 0.72574967 1.2724792e-38
-0.027769253 0.23695469 0.72691482 1.2724792e-38
-0.025795704 0.23702732 0.72713763 1.2724792e-38
-0.023839168 0.23728138 0.72791702 1.2632596e-38
-0.02178731 0.23654668 0.72566313 1.2540401e-38
-0.019795028 0.23637663 0.72514147 1.2908827e-38
-0.017780302 0.23587109 0.72359061 1.2724439e-38
-0.015826959 0.23615533 0.72446257 1.2724436e-38
-0.013864107 0.23635849 0.72508585 1.2816632e-38
-0.011893479 0.23647463 0.72544211 1.2725155e-38
-0.0099044787 0.23619889 0.7245962 1.2632959e-38
-0.0079168919 0.23582794 0.72345823 1.2725155e-38
-0.0059398967 0.23563102 0.72285414 1.2632959e-38
-0.0039690123 0.23560137 0.72276318 1.2632959e-38
-0.0019951251 0.23515928 0.72140694 1.2725155e-38
-2.8670502e-05 0.23503838 0.72103608 1.2725155e-38
0.0019364137 0.23499656 0.72090775 1.2632962e-38
0.0039098226 0.23549826 0.72244686 1.2540766e-38
0.005882293 0.23562628 0.72283959 1.263224e-38
0.0078496709 0.23553726 0.72256649 1.2816632e-38
0.0097852852 0.23472203 0.72006559 1.3001023e-38
0.011744556 0.23465185 0.7198503 1.3001023e-38
0.013691668 0.23439361 0.7190581 1.3001023e-38
0.015637185 0.23417616 0.718391 1.2816637e-38
0.017573729 0.23388767 0.71750599 1.2816634e-38
0.019529339 0.23388532 0.71749878 1.2816632e-38
0.021527493 0.23434654 0.71891367 1.2725155e-38
0.023425579 0.23373233 0.71702945 1.2725155e-38
0.025332503 0.23329413 0.71568519 1.2816632e-38
0.027300876 0.23344402 0.71614498 1.2909183e-38
0.029223155 0.23320608 0.71541506 1.2909183e-38
0.03117846 0.23324496 0.71553433 1.2724792e-38
0.03308982 0.23296988 0.71469045 1.2632959e-38
0.03509742 0.23336527 0.7159034 1.2725155e-38
0.036990296 0.2329964 0.71477181 1.2725158e-38
0.038890075 0.23270573 0.71388012 1.2632962e-38
0.040853478 0.23280534 0.71418571 1.2725158e-38
0.042839747 0.23302028 0.71484506 1.2817351e-38
0.044683069 0.23247279 0.71316552 1.2817348e-38
0.046457149 0.23162575 0.710567 1.2540766e-38
0.048355076 0.23143923 0.70999485 1.2817351e-38
0.050357975 0.23175019 0.71094877 1.2909546e-38
0.052267853 0.23162585 0.71056736 1.2817351e-38
0.05423709 0.23176408 0.71099138 1.2908827e-38
0.05613862 0.23161341 0.71052915 1.2816634e-38
0.058008887 0.23134811 0.70971531 1.3001023e-38
0.059782282 0.23072606 0.707807 1.2909546e-38
0.06157513 0.23021565 0.70624119 1.2909546e-38
0.063547157 0.23038577 0.70676309 1.3093219e-38
0.065420449 0.23019847 0.7061885 1.2908827e-38
0.06751737 0.23078628 0.70799172 1.2816632e-38
0.069498107 0.2309553 0.70851028 1.2816632e-38
0.071390435 0.23082934 0.70812386 1.3001023e-38
0.073229402 0.23054202 0.70724243 1.3185414e-38
0.075153157 0.23052952 0.70720404 1.2816632e-38
0.076893471 0.22996901 0.70548457 1.3001023e-38
0.078714363 0.22967099 0.70457029 1.2908827e-38
0.080493599 0.22926848 0.70333552 1.3001023e-38
0.082458429 0.22940105 0.70374221 1.3185414e-38
0.084266946 0.22910261 0.70282668 1.3001023e-38
0.086226501 0.22921893 0.70318353 1.3093219e-38
0.088256821 0.22951426 0.70408952 1.3093219e-38
0.090176545 0.22951551 0.70409334 1.3001023e-38
0.091910474 0.22905366 0.70267653 1.2908827e-38
0.093534186 0.22834161 0.70049214 1.3093221e-38
0.095295236 0.22798663 0.69940317 1.3001026e-38
0.097342737 0.22831744 0.700418 1.2816634e-38
0.099342771 0.22852631 0.70105875 1.3093221e-38
0.10139252 0.22883952 0.70201957 1.3093221e-38
0.10313637 0.22846352 0.7008661 1.3185417e-38
0.10491149 0.22816919 0.69996321 1.2908827e-38
0.10674337 0.22800663 0.6994645 1.3001023e-38
0.10846838 0.22762547 0.69829524 1.3001742e-38
0.11056295 0.22801967 0.69950449 1.3001742e-38
0.11241601 0.22791085 0.69917065 1.3185414e-38
0.11436529 0.22799748 0.69943643 1.3001023e-38
0.1160314 0.22752598 0.69799 1.3185414e-38
0.11751129 0.22671044 0.69548815 1.3093219e-38
0.1193933 0.22668429 0.69540793 1.3001023e-38
0.12147275 0.22702797 0.69646221 1.3185417e-38
0.12369225 0.22761875 0.69827461 1.3093937e-38
0.12554392 0.22752503 0.69798708 1.2910625e-38
0.12719624 0.22707821 0.69661635 1.327761e-38
0.12888218 0.2267037 0.69546747 1.3185414e-38
0.13042413 0.22609039 0.69358599 1.3369805e-38
0.13221709 0.22592357 0.69307423 1.3369805e-38
0.13389829 0.22557312 0.69199914 1.3185414e-38
0.13593076 0.22581598 0.6927442 1.3185417e-38
0.13772625 0.2256639 0.69227761 1.3277613e-38
0.13933814 0.22521918 0.69091332 1.3277613e-38
0.14126596 0.22529013 0.691131 1.3186136e-38
0.14307204 0.22516765 0.69075525 1.3186133e-38
0.14487486 0.22504325 0.69037366 1.3278329e-38
0.146658 0.22489192 0.6899094 1.346272e-38
0.1486804 0.22510664 0.69056809 1.3278326e-38
0.15066653 0.22526176 0.69104397 1.3370161e-38
0.15230909 0.2249057 0.68995166 1.3645669e-38
0.15393044 0.22452742 0.68879122 1.3553474e-38
0.15592481 0.22469579 0.68930769 1.3554553e-38
0.15810187 0.22512028 0.69060993 1.3462357e-38
0.15985917 0.22494411 0.6900695 1.3369805e-38
0.16175039 0.22495829 0.69011301 1.3369805e-38
0.16361749 0.224939 0.69005382 1.3462001e-38
0.16537142 0.22476631 0.68952405 1.3554197e-38
0.16711205 0.22457965 0.68895143 1.3462001e-38
0.16857472 0.22402774 0.6872583 1.3462001e-38
0.17053756 0.22414534 0.68761909 1.346272e-38
0.17201708 0.22363205 0.68604445 1.3370522e-38
0.17455867 0.22449569 0.68869388 1.3648187e-38
0.17984638 0.22883512 0.7020061 0
-0.59892094 0.28544465 0.86840755 2.1237141e-39
-0.59566504 0.2850194 0.86711377 2.3081081e-39
-0.59057319 0.28370878 0.86312646 2.3995849e-39
-0.58942521 0.28428984 0.86489427 2.5839762e-39
-0.59243447 0.28688875 0.87280089 2.4917805e-39
-0.59016764 0.28694335 0.872967 2.4917777e-39
-0.58510649 0.28563428 0.8689844 2.3995821e-39
-0.58246678 0.28550145 0.86858028 2.4924966e-39
-0.58009917 0.28550145 0.86858028 2.5843293e-39
-0.57623321 0.28476101 0.86632764 2.399938e-39
-0.57617164 0.2859022 0.86979955 2.676169e-39
-0.57403219 0.28601757 0.87015051 2.676169e-39
-0.56975508 0.28506431 0.86725044 3.0449543e-39
-0.56842345 0.28558299 0.86882842 3.0449543e-39
-0.56842244 0.28677732 0.87246192 3.3222601e-39
-0.5682404 0.28788999 0.87584692 3.2300644e-39
-0.565853 0.28788999 0.87584692 3.7832382e-39
-0.56524849 0.2888009 0.87861824 3.6910398e-39
-0.5601781 0.28742814 0.87444192 3.5059324e-39
-0.56019121 0.28866315 0.87819916 3.6892447e-39
-0.55786145 0.28869629 0.87830001 4.0580286e-39
-0.55863875 0.29034463 0.88331467 4.2424199e-39
-0.55537337 0.28989694 0.8819527 4.2431402e-39
-0.55589753 0.29143208 0.88662308 4.1509445e-39
-0.55351663 0.29145098 0.88668054 4.4275314e-39
-0.55109966 0.29145098 0.88668054 4.9810625e-39
-0.54999977 0.29215056 0.88880891 4.7044756e-39
-0.54887718 0.29284427 0.89091933 4.7955923e-39
-0.54895967 0.2941899 0.89501321 4.7033938e-39
-0.54668355 0.29427794 0.89528096 5.2565676e-39
-0.5463205 0.29540119 0.89869827 4.8877851e-39
-0.54456657 0.29577911 0.89984798 4.7033966e-39
-0.54462057 0.29714683 0.90400904 4.9799835e-39
-0.5418821 0.2969965 0.9035517 4.8885096e-39
-0.54024714 0.29745236 0.90493858 4.519727e-39
-0.54141092 0.29946044 0.9110477 4.1509445e-39
-0.53892756 0.29946044 0.9110477 4.1509445e-39
-0.5396226 0.30123475 0.91644567 4.519727e-39
-0.54015279 0.30293307 0.9216125 4.519727e-39
-0.53996378 0.30424204 0.92559481 3.8743576e-39
-0.2259178 0.25221217 0.76730442 2.6754683e-39
-0.22138 0.2518087 0.76607698 2.9520524e-39
-0.20695384 0.2495216 0.75911891 4.1505984e-39
-0.20473297 0.24933693 0.75855708 4.8878075e-39
-0.2023524 0.24895202 0.75738609 5.0721988e-39
-0.19994549 0.24852642 0.7560913 5.7175682e-39
-0.19772807 0.24832995 0.75549358 6.3629376e-39
-0.19602211 0.24877846 0.75685805 7.1008586e-39
-0.19410005 0.24895933 0.75740832 7.6540295e-39
-0.19169313 0.24851549 0.75605804 8.1150077e-39
-0.18911344 0.24783561 0.75398964 8.9447684e-39
-0.18719654 0.24801892 0.7545473 9.5901406e-39
-0.18549061 0.24848893 0.75597721 9.9589203e-39
-0.18319702 0.2481734 0.75501728 1.0973791e-38
-0.18086562 0.24779887 0.75387788 1.0973075e-38
-0.17847988 0.24734049 0.75248331 1.1157463e-38
-0.17648719 0.24742244 0.75273263 1.1618444e-38
-0.17405927 0.24688898 0.75110972 1.1618805e-38
-0.17178029 0.24655659 0.75009847 1.1895747e-38
-0.16976476 0.24659888 0.75022715 1.2080139e-38
-0.16758345 0.24639848 0.74961746 1.1895747e-38
-0.1653972 0.24618575 0.74897027 1.1895746e-38
-0.16325504 0.24603418 0.74850911 1.1895746e-38
-0.16122951 0.24605672 0.74857771 1.2171615e-38
-0.15927202 0.24618502 0.74896806 1.1895029e-38
-0.15698092 0.24579433 0.74777943 1.2171618e-38
-0.15471941 0.24544029 0.74670237 1.2447126e-38
-0.15238227 0.24495521 0.74522662 1.2078344e-38
-0.15031517 0.24489701 0.74504954 1.2170539e-38
-0.14809738 0.24458832 0.74411041 1.2171618e-38
-0.1458347 0.24419591 0.74291658 1.1895031e-38
-0.14370333 0.2440154 0.74236739 1.1895031e-38
-0.14195049 0.2444817 0.74378604 1.1987227e-38
-0.13999933 0.24461496 0.74419147 1.2172334e-38
-0.13777764 0.24427253 0.7431497 1.2172333e-38
-0.13568819 0.24415782 0.74280071 1.2171614e-38
-0.13367525 0.24417941 0.7428664 1.2171615e-38
-0.13145933 0.2438252 0.74178874 1.207942e-38
-0.12933986 0.24364157 0.74123013 1.2079423e-38
-0.12711941 0.24325891 0.74006593 1.2263814e-38
-0.1252335 0.24351439 0.74084318 1.2262735e-38
-0.12326466 0.24361435 0.74114728 1.1987227e-38
-0.12133254 0.24379143 0.74168605 1.2079067e-38
-0.1190522 0.24326298 0.74007833 1.2079067e-38
-0.11692213 0.24302866 0.73936546 1.2079423e-38
-0.11475659 0.24271111 0.73839939 1.1895391e-38
-0.11274305 0.24270943 0.73839426 1.226453e-38
-0.11082579 0.24291873 0.73903102 1.2079423e-38
-0.10854144 0.24231626 0.73719811 1.2356009e-38
-0.1064209 0.24206364 0.73642957 1.1987227e-38
-0.10406724 0.24126087 0.73398733 1.2171262e-38
-0.10196727 0.24102628 0.73327363 1.2263814e-38
-0.099960856 0.24100791 0.73321772 1.2171618e-38
-0.098129794 0.24142016 0.73447192 1.2264174e-38
-0.096215047 0.24163944 0.73513901 1.2171978e-38
-0.094061635 0.24125588 0.73397213 1.1987587e-38
-0.09199515 0.24108344 0.73344755 1.2171978e-38
-0.090155445 0.24151087 0.73474789 1.2079783e-38
-0.08821141 0.24167189 0.73523778 1.2171978e-38
-0.086138934 0.24148032 0.73465496 1.2079786e-38
-0.084015228 0.24113259 0.73359704 1.2171978e-38
-0.081804976 0.24051346 0.73171347 1.2079783e-38
-0.079844192 0.24061516 0.73202288 1.2079783e-38
-0.077990778 0.24105394 0.73335779 1.2264174e-38
-0.076098815 0.24139351 0.73439085 1.2079783e-38
-0.074147433 0.24155787 0.73489088 1.2264174e-38
-0.071996801 0.24106424 0.73338908 1.235637e-38
-0.069932073 0.2408382 0.73270142 1.235637e-38
-0.067799032 0.24035673 0.73123664 1.2448205e-38
-0.06579224 0.24030721 0.73108602 1.2171618e-38
-0.06374532 0.24010344 0.73046607 1.2079423e-38
-0.061673909 0.23979132 0.72951651 1.2356009e-38
-0.059604988 0.23946841 0.7285341 1.2540401e-38
-0.057600204 0.23938978 0.72829491 1.2171618e-38
-0.055702038 0.23976448 0.72943485 1.2263814e-38
-0.053782057 0.24006954 0.73036295 1.2448565e-38
-0.051839493 0.24029337 0.73104388 1.2263814e-38
-0.049802516 0.24007997 0.73039466 1.2356009e-38
-0.047731172 0.23967622 0.72916633 1.2447849e-38
-0.045623109 0.23904499 0.72724599 1.2356009e-38
-0.043493472 0.23823828 0.72479171 1.2448205e-38
-0.041521903 0.23826177 0.72486317 1.2540401e-38
-0.039608501 0.2386381 0.72600806 1.2171978e-38
-0.037676066 0.2389333 0.72690612 1.2264174e-38
-0.035649937 0.23863406 0.72599578 1.2356372e-38
-0.033639632 0.23841183 0.72531968 1.2356372e-38
-0.031623702 0.2381195 0.72443032 1.2356372e-38
-0.029617341 0.23786506 0.72365624 1.263224e-38
-0.027663095 0.23802273 0.72413594 1.2540401e-38
-0.025694765 0.23807414 0.72429234 1.2447849e-38
-0.02373299 0.2381999 0.72467494 1.263224e-38
-0.021686273 0.23741858 0.72229791 1.263224e-38
-0.019716719 0.23741031 0.72227275 1.263224e-38
-0.017680794 0.23651238 0.71954101 1.2540045e-38
-0.015728604 0.23665027 0.71996051 1.2815911e-38
-0.013765161 0.23663399 0.71991098 1.263224e-38
-0.011827533 0.23712993 0.72141975 1.2724436e-38
-0.0098572923 0.23703933 0.72114414 1.2540764e-38
-0.0078798393 0.23668703 0.72007233 1.2725155e-38
-0.0059125461 0.23650736 0.71952569 1.2725152e-38
-0.0039504305 0.23645926 0.71937937 1.2817348e-38
-0.0019876694 0.23623957 0.71871102 1.2632956e-38
-2.8554618e-05 0.23604587 0.71812171 1.2725152e-38
0.0019280997 0.23594421 0.71781248 1.2540764e-38
0.0038923442 0.23640598 0.7192173 1.2632959e-38
0.0058617722 0.23676775 0.7203179 1.2816632e-38
0.007825423 0.23677319 0.72033447 1.3001023e-38
0.0097603714 0.2360822 0.71823227 1.2724436e-38
0.011698587 0.23568791 0.71703273 1.263224e-38
0.013643022 0.23551388 0.71650326 1.2816632e-38
0.015566045 0.2350601 0.7151227 1.2816632e-38
0.017507989 0.23496123 0.71482193 1.2817351e-38
0.01941815 0.23449837 0.71341377 1.2632959e-38
0.021410447 0.23502138 0.71500492 1.2817351e-38
0.023316057 0.23458494 0.71367717 1.2817351e-38
0.025246246 0.23444396 0.71324825 1.2540761e-38
0.027211197 0.23462288 0.71379256 1.2632956e-38
0.029166402 0.2346995 0.71402568 1.2909183e-38
0.031104304 0.23463601 0.7138325 1.2632956e-38
0.032960754 0.23400171 0.7119028 1.2632959e-38
0.034910295 0.23406209 0.7120865 1.2725155e-38
0.036801711 0.23374696 0.71112776 1.2909549e-38
0.038703136 0.23352373 0.71044862 1.2725158e-38
0.040689342 0.23380895 0.71131635 1.2725158e-38
0.042669553 0.23403536 0.71200514 1.2632962e-38
0.044557124 0.23375605 0.71115541 1.2817351e-38
0.04624356 0.23248881 0.70730013 1.2725152e-38
0.048100054 0.23214376 0.70625037 1.2817348e-38
0.050010454 0.23207542 0.70604247 1.2817351e-38
0.05193669 0.23208293 0.7060653 1.3001742e-38
0.053867429 0.23210931 0.70614552 1.2817351e-38
0.055826064 0.2322499 0.70657325 1.3093219e-38
0.057742253 0.23221041 0.70645314 1.3001023e-38
0.059654031 0.23215632 0.70628858 1.2909546e-38
0.061484709 0.23179987 0.70520413 1.3001742e-38
0.063421361 0.23185241 0.70536399 1.3001742e-38
0.065216847 0.23140101 0.7039907 1.3093219e-38
0.067287907 0.23192523 0.70558554 1.3001023e-38
0.069167718 0.23177947 0.70514208 1.2816632e-38
0.071036354 0.23160514 0.70461172 1.2908827e-38
0.072835147 0.23121828 0.70343477 1.3093219e-38
0.074800611 0.23136677 0.70388651 1.2908827e-38
0.076606385 0.23102628 0.70285064 1.2908827e-38
0.078424186 0.23073776 0.7019729 1.3001023e-38
0.080197722 0.23033588 0.70075023 1.2816632e-38
0.082155481 0.2304695 0.70115674 1.3001023e-38
0.083862163 0.22990869 0.69945061 1.2817353e-38
0.085697673 0.22971816 0.69887096 1.2817353e-38
0.087722346 0.23003194 0.69982558 1.2817353e-38
0.089681797 0.23016499 0.70023036 1.2816632e-38
0.091437571 0.22978066 0.6990611 1.2908827e-38
0.093113482 0.22921541 0.69734144 1.2908827e-38
0.094953127 0.22906779 0.69689232 1.3001026e-38
0.09706293 0.22956489 0.69840467 1.290883e-38
0.098849438 0.22929293 0.6975773 1.3093221e-38
0.10087574 0.22957702 0.69844157 1.3093221e-38
0.1027216 0.2294475 0.69804752 1.3001026e-38
0.10460078 0.22939578 0.69789016 1.3093221e-38
0.10644415 0.22926876 0.69750375 1.3185417e-38
0.10804794 0.22863925 0.69558859 1.3093221e-38
0.11009142 0.22894581 0.69652122 1.3001023e-38
0.11191621 0.2287949 0.69606215 1.327761e-38
0.11398052 0.22913054 0.69708323 1.2908827e-38
0.11572298 0.22881874 0.69613469 1.3462001e-38
0.11726519 0.22812748 0.69403166 1.3001023e-38
0.1190536 0.2279295 0.69342935 1.3001023e-38
0.12071442 0.22749725 0.69211429 1.3093221e-38
0.12286593 0.22798884 0.69360983 1.3093221e-38
0.1245828 0.22767121 0.69264352 1.3277613e-38
0.12647414 0.22767718 0.6926617 1.290883e-38
0.12818268 0.22735871 0.69169283 1.3369808e-38
0.12996885 0.22718519 0.69116491 1.3185414e-38
0.13179478 0.22708511 0.69086045 1.3093219e-38
0.13354845 0.22686513 0.69019121 1.327761e-38
0.13558148 0.22711921 0.69096416 1.327761e-38
0.13740031 0.22701243 0.69063932 1.327761e-38
0.13912694 0.22675826 0.68986607 1.327761e-38
0.1408347 0.22648054 0.68902117 1.3185414e-38
0.14259519 0.22629379 0.68845302 1.3278329e-38
0.14424567 0.22593959 0.68737543 1.3462001e-38
0.14602724 0.22579716 0.6869421 1.327761e-38
0.14803593 0.22600511 0.68757474 1.3186133e-38
0.14997911 0.22610909 0.68789107 1.3369805e-38
0.1516085 0.22574322 0.68677801 1.3462001e-38
0.15327972 0.22544785 0.68587941 1.3185414e-38
0.15528589 0.22564632 0.6864832 1.3369805e-38
0.15739761 0.22599159 0.68753362 1.3554197e-38
0.1590748 0.22571217 0.68668354 1.3369805e-38
0.16088504 0.22562586 0.68642098 1.3369808e-38
0.16278079 0.22566007 0.68652505 1.3462004e-38
0.16448605 0.22543243 0.6858325 1.3369805e-38
0.16622725 0.22525862 0.68530369 1.3462001e-38
0.16779256 0.22485293 0.68406951 1.346272e-38
0.16975822 0.22498679 0.68447673 1.346272e-38
0.17143197 0.22473505 0.68371087 1.3370522e-38
0.17396744 0.22560625 0.68636131 1.3370522e-38
0.17946969 0.23026536 0.70053571 0
-0.59666693 0.28336874 0.85500163 2.2151908e-39
-0.59948689 0.28694966 0.86580622 2.0315184e-39
-0.59456217 0.28571719 0.86208755 2.2159069e-39
-0.59221226 0.28571719 0.86208755 2.2151908e-39
-0.59057319 0.28606153 0.86312646 2.3073865e-39
-0.5876025 0.285761 0.86221969 2.3073893e-39
-0.58909827 0.2876389 0.86788589 2.5839762e-39
-0.58611661 0.28733698 0.86697483 2.5839733e-39
-0.58364671 0.28728443 0.86681634 2.4924966e-39
-0.57929027 0.28629914 0.86384344 2.5846894e-39
-0.57693559 0.28629914 0.86384344 2.4924938e-39
-0.57390714 0.28596345 0.86283052 2.5846894e-39
-0.57309908 0.28673586 0.86516118 2.676169e-39
-0.57097757 0.28685483 0.86552012 2.7683674e-39
-0.56930429 0.2872009 0.86656427 2.9527587e-39
-0.56700212 0.28723127 0.86665595 3.4137368e-39
-0.56825876 0.28907225 0.87221068 3.6903237e-39
-0.56674165 0.28951177 0.87353683 3.6903209e-39
-0.5643605 0.28951177 0.87353683 4.2434947e-39
-0.56367725 0.29038644 0.87617594 3.5984812e-39
-0.55846602 0.28892601 0.87176937 3.8736332e-39
-0.55882931 0.29034939 0.87606418 4.5190026e-39
-0.55613029 0.29018709 0.87557447 4.4278887e-39
-0.55863875 0.29275239 0.88331467 4.2431402e-39
-0.55867136 0.29403678 0.88719004 4.1509445e-39
-0.55824167 0.29508799 0.89036185 4.2431402e-39
-0.55622864 0.29530776 0.89102495 4.7041183e-39
-0.55379987 0.29530776 0.89102495 4.8885096e-39
-0.55255866 0.29594383 0.89294416 4.5200844e-39
-0.55213463 0.29702511 0.89620668 4.7033966e-39
-0.55116242 0.29781979 0.89860445 4.0573084e-39
-0.5477823 0.29731467 0.89708036 4.6104835e-39
-0.54657078 0.29798734 0.89910996 4.7033966e-39
-0.54562163 0.29880974 0.90159136 4.5190054e-39
-0.54543078 0.30005673 0.90535384 4.3346141e-39
-0.54339695 0.3002966 0.90607762 4.2431402e-39
-0.54082054 0.30023739 0.90589899 4.3353358e-39
-0.54062909 0.30150777 0.9097321 3.9665533e-39
-0.54166162 0.30347562 0.91566962 3.782162e-39
-0.53916568 0.30347562 0.91566962 3.8743576e-39
-0.54082531 0.30582556 0.92276001 4.519727e-39
-0.54133314 0.30754304 0.92794216 4.2438618e-39
-0.16745527 0.25131607 0.75828987 5.0732694e-39
-0.16511041 0.2508938 0.75701576 5.8108344e-39
-0.16309598 0.25096932 0.75724363 6.547682e-39
-0.16099261 0.25090817 0.7570591 7.0086601e-39
-0.15833661 0.24997294 0.75423729 7.6529533e-39
-0.15601252 0.24954402 0.7529431 7.9295402e-39
-0.15383539 0.24934185 0.7523331 8.9447712e-39
-0.15180548 0.24937606 0.75243634 9.1291624e-39
-0.14949018 0.248936 0.75110853 9.9589231e-39
-0.14707288 0.24831147 0.74922419 1.0051119e-38
-0.14506483 0.24837005 0.74940091 1.0419901e-38
-0.14300703 0.2483439 0.749322 1.1065271e-38
-0.14093146 0.2482857 0.7491464 1.1157463e-38
-0.13859673 0.2477625 0.74756777 1.1618442e-38
-0.13674925 0.24810772 0.74860936 1.1895029e-38
-0.13465074 0.24800104 0.7482875 1.2356009e-38
-0.1323355 0.24748576 0.74673277 1.2448205e-38
-0.13019772 0.24729143 0.74614644 1.2816988e-38
-0.12772597 0.24644658 0.74359727 1.2539325e-38
-0.12577374 0.24659301 0.74403912 1.2815193e-38
-0.12376287 0.24662741 0.74414289 1.1709564e-38
-0.12197228 0.24710922 0.74559665 1.1986151e-38
-0.11962498 0.24646041 0.74363899 1.1985795e-38
-0.11733291 0.245905 0.74196315 1.1894678e-38
-0.11507796 0.24540921 0.74046725 1.1986871e-38
-0.11302321 0.24533029 0.74022913 1.1987227e-38
-0.11110561 0.24555162 0.74089694 1.1987227e-38
-0.1089328 0.24520667 0.73985612 1.2262735e-38
-0.10687729 0.24511774 0.73958778 1.2262738e-38
-0.10461044 0.24453136 0.73781854 1.2262019e-38
-0.10247745 0.24424101 0.73694247 1.180248e-38
-0.10040487 0.24408595 0.73647463 1.2171262e-38
-0.098497972 0.24433552 0.73722762 1.1987227e-38
-0.096511692 0.24439448 0.73740554 1.2171618e-38
-0.0942197 0.24366535 0.73520553 1.2171618e-38
-0.092082918 0.24331462 0.73414731 1.2171618e-38
-0.090120152 0.24341834 0.73446023 1.1986871e-38
-0.088318489 0.24397182 0.73613024 1.2079067e-38
-0.086198077 0.24365003 0.73515934 1.2356372e-38
-0.084101669 0.24338241 0.73435181 1.1895397e-38
-0.081949294 0.24293582 0.73300433 1.226418e-38
-0.080085613 0.2433441 0.73423624 1.2171978e-38
-0.078202091 0.2437115 0.73534477 1.2171978e-38
-0.076317757 0.24409562 0.73650378 1.2079783e-38
-0.074285217 0.24401368 0.73625654 1.2079783e-38
-0.072184175 0.24369591 0.73529774 1.235637e-38
-0.07007388 0.24332784 0.73418719 1.2171978e-38
-0.068035141 0.24319392 0.73378313 1.2171618e-38
-0.065999418 0.24306302 0.73338813 1.2539322e-38
-0.063932613 0.24280587 0.73261225 1.235493e-38
-0.061874144 0.24256484 0.73188502 1.2447126e-38
-0.059890151 0.24260943 0.73201954 1.2447126e-38
-0.05789027 0.24259053 0.7319625 1.2171618e-38
-0.055900995 0.24261628 0.73204023 1.2448205e-38
-0.053878609 0.24249496 0.73167413 1.2264174e-38
-0.051954817 0.24282508 0.73267019 1.235637e-38
-0.049922295 0.24265312 0.73215133 1.235637e-38
-0.04787251 0.24237941 0.73132551 1.2079423e-38
-0.045774117 0.24182515 0.72965312 1.2448205e-38
-0.043693785 0.24132025 0.72812974 1.2263814e-38
-0.041701112 0.24127451 0.7279917 1.2356009e-38
-0.039789617 0.24171732 0.7293278 1.2171978e-38
-0.037801031 0.24171379 0.72931713 1.2448921e-38
-0.035769161 0.24141769 0.72842371 1.2264174e-38
-0.033740975 0.24111313 0.72750479 1.2264177e-38
-0.031787738 0.24133958 0.72818804 1.2264177e-38
-0.029785147 0.2411965 0.72775632 1.2447849e-38
-0.02780037 0.24118757 0.72772938 1.2447849e-38
-0.025785387 0.24089506 0.72684681 1.2447849e-38
-0.023799626 0.24084958 0.7267096 1.2263458e-38
-0.021757428 0.24017289 0.72466785 1.263224e-38
-0.019773776 0.24007183 0.72436291 1.2540045e-38
-0.01775258 0.23944198 0.72246248 1.263224e-38
-0.015783006 0.23943807 0.72245067 1.2540045e-38
-0.013793232 0.23908293 0.7213791 1.2540045e-38
-0.011858468 0.23972175 0.7233066 1.263224e-38
-0.0098977406 0.23998578 0.72410327 1.2725152e-38
-0.0079391506 0.24044614 0.7254923 1.2448565e-38
-0.0059565636 0.24024402 0.72488242 1.2448565e-38
-0.0039769174 0.24001874 0.72420269 1.2725152e-38
-0.0019986464 0.23951414 0.72268021 1.2632956e-38
-2.8698203e-05 0.23920013 0.72173274 1.2632956e-38
0.0019367096 0.23896322 0.7210179 1.2725152e-38
0.0039081289 0.23933309 0.72213393 1.2632956e-38
0.0058799526 0.23947166 0.722552 1.2725152e-38
0.007855339 0.23964939 0.72308826 1.2448568e-38
0.0098034646 0.23909096 0.72140336 1.2816632e-38
0.011763788 0.23896691 0.72102904 1.263224e-38
0.013711613 0.23866083 0.72010553 1.2724436e-38
0.015669644 0.23858681 0.71988219 1.2908827e-38
0.017608302 0.23826711 0.71891755 1.2725155e-38
0.019533668 0.23784962 0.71765786 1.2448568e-38
0.021494133 0.23789659 0.7177996 1.2448568e-38
0.023435701 0.23774403 0.71733928 1.2632959e-38
0.02540461 0.23787098 0.7177223 1.2632956e-38
0.027361846 0.23787828 0.71774435 1.2632956e-38
0.029313428 0.23783873 0.71762502 1.2725152e-38
0.031210855 0.23739222 0.71627778 1.2448565e-38
0.033082627 0.23681466 0.71453512 1.235637e-38
0.035018444 0.23673424 0.71429247 1.2540764e-38
0.036946096 0.23661003 0.71391767 1.2540764e-38
0.038892224 0.23661068 0.71391964 1.2725155e-38
0.040873159 0.2368129 0.71452981 1.2632959e-38
0.042803396 0.23671636 0.71423852 1.2725155e-38
0.044710163 0.23650406 0.71359795 1.2632959e-38
0.046480682 0.2356188 0.71092689 1.2540761e-38
0.048422258 0.23563685 0.71098131 1.2725155e-38
0.050289124 0.23530389 0.70997673 1.2725155e-38
0.052250605 0.23542193 0.71033287 1.2540764e-38
0.054151379 0.23526779 0.70986778 1.3001742e-38
0.056152031 0.23554324 0.7106989 1.2724436e-38
0.058063384 0.23543823 0.71038204 1.2816632e-38
0.059997734 0.23543023 0.7103579 1.2724436e-38
0.061898403 0.23529471 0.70994902 1.2908827e-38
0.06386511 0.23541082 0.71029937 1.2908827e-38
0.065698348 0.23504259 0.70918828 1.2724436e-38
0.067630075 0.23503771 0.70917356 1.2816632e-38
0.06955307 0.23500359 0.70907062 1.263224e-38
0.071377106 0.23464599 0.70799166 1.2724436e-38
0.073205583 0.23432145 0.70701241 1.2908107e-38
0.075055331 0.23407987 0.70628351 1.3092498e-38
0.077056684 0.23431137 0.70698202 1.2724436e-38
0.078845993 0.23390256 0.7057485 1.3001023e-38
0.080727413 0.23377997 0.70537859 1.2908827e-38
0.082571685 0.23355798 0.70470881 1.2908827e-38
0.084291928 0.23300326 0.70303506 1.2725155e-38
0.086096197 0.23270027 0.7021209 1.2817351e-38
0.088012725 0.23270734 0.70214218 1.2817351e-38
0.090051033 0.23302919 0.70311332 1.2816632e-38
0.091941766 0.23296373 0.70291579 1.2908827e-38
0.093745932 0.23268606 0.70207798 1.3001023e-38
0.095577516 0.23248619 0.70147491 1.2816632e-38
0.097512469 0.23254067 0.70163929 1.3093219e-38
0.099396691 0.23247437 0.70143926 1.3185414e-38
0.10142003 0.23272984 0.70221007 1.3001026e-38
0.10318609 0.23239638 0.70120394 1.290883e-38
0.10493593 0.2320392 0.70012623 1.3001745e-38
0.10678294 0.23190582 0.69972378 1.2817353e-38
0.10858247 0.23167582 0.6990298 1.2817353e-38
0.11069828 0.23211691 0.70036072 1.2909546e-38
0.11231661 0.2315176 0.69855243 1.3093937e-38
0.11432404 0.23172696 0.69918412 1.3001739e-38
0.11604261 0.23135354 0.69805741 1.3093219e-38
0.11766797 0.23080936 0.69641548 1.3185414e-38
0.11956647 0.23080972 0.69641656 1.3001023e-38
0.12128826 0.23047426 0.69540441 1.3093221e-38
0.12372596 0.2314886 0.69846493 1.3001026e-38
0.12538898 0.23104474 0.69712567 1.3185417e-38
0.12674114 0.23004988 0.69412392 1.290883e-38
0.12842244 0.22967295 0.69298661 1.290883e-38
0.13037734 0.22978915 0.6933372 1.3093221e-38
0.13208276 0.22946858 0.69237 1.3185414e-38
0.13408116 0.2296589 0.69294423 1.3185414e-38
0.13610296 0.22988345 0.69362175 1.3001023e-38
0.13813002 0.23011063 0.69430721 1.3001023e-38
0.13984399 0.22981709 0.69342154 1.3369805e-38
0.14159195 0.22958654 0.6927259 1.3001023e-38
0.14335531 0.22938669 0.69212288 1.3185414e-38
0.1451918 0.22930753 0.69188404 1.3001023e-38
0.14696082 0.2291252 0.69133389 1.2908827e-38
0.14876923 0.22900811 0.69098061 1.3185417e-38
0.15053207 0.22882469 0.69042718 1.3185417e-38
0.15240414 0.22880982 0.6903823 1.3093219e-38
0.15444632 0.22904754 0.69109958 1.327761e-38
0.15656026 0.22938469 0.69211686 1.3185414e-38
0.15856126 0.22955032 0.69261658 1.327761e-38
0.16004862 0.22897717 0.69088727 1.327761e-38
0.16161673 0.22853157 0.68954277 1.3093219e-38
0.16318202 0.22809225 0.68821722 1.3093221e-38
0.16500801 0.2280232 0.68800884 1.3554197e-38
0.16671637 0.22779495 0.68732017 1.2909546e-38
0.16817296 0.22723159 0.68562037 1.3278326e-38
0.1702539 0.22751497 0.6864754 1.3462717e-38
0.17227367 0.22771129 0.68706775 1.3278326e-38
0.1751586 0.22903471 0.69106084 1.3278326e-38
0.18041289 0.2333951 0.70421737 0
-0.59697872 0.28473642 0.85211998 2.2151908e-39
-0.59450692 0.28466508 0.85190642 2.3081053e-39
-0.59171927 0.28444132 0.85123676 2.0315184e-39
-0.59093815 0.28518412 0.85345972 2.2159069e-39
-0.58797914 0.2848776 0.85254246 2.2159069e-39
-0.58565521 0.2848776 0.85254246 2.7687205e-39
-0.58663702 0.28649199 0.85737371 2.6765249e-39
-0.5876025 0.28811127 0.86221969 2.3081053e-39
-0.59025049 0.29057184 0.86958337 2.4924966e-39
-0.58616751 0.28972536 0.86705011 2.6768878e-39
-0.58411771 0.28988099 0.86751586 2.7690835e-39
-0.57974535 0.28888059 0.86452204 2.8612791e-39
-0.57738876 0.28888059 0.86452204 3.137866e-39
-0.57516158 0.28894559 0.86471653 3.3222573e-39
-0.57261115 0.28884804 0.86442465 3.0449515e-39
-0.57210249 0.2897839 0.86722535 3.2293428e-39
-0.57033134 0.29008541 0.86812764 3.2282638e-39
-0.57131255 0.29179516 0.87324435 3.7814375e-39
-0.56903839 0.29184961 0.8734073 3.9658288e-39
-0.56769335 0.29238304 0.8750037 3.6892419e-39
-0.56530821 0.29238304 0.8750037 3.5059296e-39
-0.56386918 0.29287446 0.87647432 3.7825165e-39
-0.56022108 0.29221776 0.87450904 3.9669078e-39
-0.55964953 0.29316705 0.87734997 4.0591034e-39
-0.55786383 0.29348576 0.87830377 4.3356931e-39
-0.5589332 0.29531574 0.88378024 4.519727e-39
-0.55867136 0.29645512 0.88719004 4.3353358e-39
-0.55851424 0.29766026 0.8907966 4.5200844e-39
-0.55445296 0.29678607 0.88818049 4.7044756e-39
-0.55425364 0.29798052 0.89175504 4.7044728e-39
-0.55182284 0.29798052 0.89175504 4.7044728e-39
-0.55044591 0.2985521 0.89346558 4.2434947e-39
-0.5498293 0.29954299 0.89643097 4.7955937e-39
-0.54550695 0.29851487 0.89335418 4.6104835e-39
-0.54558134 0.29989427 0.89748228 4.7955937e-39
-0.54413754 0.30044788 0.89913905 4.7044756e-39
-0.54526937 0.30243504 0.90508592 4.4278887e-39
-0.54321092 0.30266276 0.90576738 4.519727e-39
-0.54139453 0.30302802 0.90686053 4.3353358e-39
-0.53881282 0.3029663 0.90667582 4.2431402e-39
