# .PCD v0.7 - Point Cloud Data file format
VERSION 0.7
FIELDS x y z rgb
SIZE 4 4 4 4
TYPE F F F F
COUNT 1 1 1 1
WIDTH 1009
HEIGHT 1
VIEWPOINT 0 0 0 1 0 0 0
POINTS 1009
DATA ascii
-0.51419425 0.24497859 0.82010883 9.9596378e-39
-0.51458764 0.24623653 0.82432002 1.0051833e-38
-0.51335043 0.24672185 0.82594472 1.0051833e-38
-0.51099545 0.24667184 0.82577729 1.0236581e-38
-0.50822079 0.24641789 0.82492715 1.0512093e-38
-0.50453651 0.24571872 0.82258654 1.0512093e-38
-0.50107902 0.24512424 0.8205964 1.0420616e-38
-0.49804866 0.24473429 0.819291 1.0605007e-38
-0.49581543 0.24473429 0.819291 1.0420616e-38
-0.49358407 0.24473523 0.81929415 1.032842e-38
-0.49307314 0.2455931 0.82216603 1.0605007e-38
-0.49069992 0.24552698 0.82194471 1.097379e-38
-0.48907337 0.24583559 0.82297778 1.0881594e-38
-0.48370472 0.24425739 0.81769449 1.097379e-38
-0.4811829 0.24410878 0.81719702 1.1250377e-38
-0.47815886 0.24370284 0.81583804 1.1065985e-38
-0.47572103 0.24359326 0.81547123 1.1342572e-38
-0.47195092 0.24279727 0.81280649 1.1158181e-38
-0.46857926 0.2421997 0.81080604 1.1342572e-38
-0.46704629 0.24255139 0.81198335 1.1526963e-38
-0.46517804 0.24273144 0.81258613 1.1434768e-38
-0.46310842 0.24280764 0.81284124 1.1250377e-38
-0.460843 0.24278145 0.8127535 1.1158182e-38
-0.45862755 0.24278145 0.8127535 1.1342574e-38
-0.45690978 0.24304616 0.8136397 1.1065987e-38
-0.4537358 0.2425351 0.81192881 1.1526965e-38
-0.45062947 0.24205534 0.81032276 1.1434769e-38
-0.44742382 0.24151725 0.80852139 1.1526965e-38
-0.4444066 0.24107604 0.80704439 1.1434769e-38
-0.44211903 0.24102823 0.80688435 1.161916e-38
-0.43963209 0.24087071 0.80635703 1.1526965e-38
-0.43900704 0.24173684 0.80925655 1.1342572e-38
-0.43700919 0.241852 0.80964202 1.1434768e-38
-0.43531075 0.24213485 0.81058896 1.1342572e-38
-0.43195668 0.24149497 0.80844682 1.1711355e-38
-0.42883369 0.24097839 0.80671746 1.161916e-38
-0.42628205 0.24077919 0.8060506 1.1803552e-38
-0.42382246 0.24063019 0.80555183 1.1526965e-38
-0.42147881 0.24054582 0.80526936 1.1434769e-38
-0.41858128 0.24014279 0.80392015 1.1342574e-38
-0.41694686 0.24046399 0.80499542 1.161916e-38
-0.4151032 0.24066728 0.80567598 1.1526963e-38
-0.4126367 0.24050969 0.80514842 1.1434768e-38
-0.40951505 0.23996654 0.80333012 1.1711356e-38
-0.40741494 0.24001935 0.80350691 1.161916e-38
-0.40513352 0.23996533 0.80332607 1.1526609e-38
-0.40294379 0.23996533 0.80332607 1.1711e-38
-0.40082824 0.24000975 0.80347478 1.1618444e-38
-0.39841783 0.23987713 0.80303085 1.1802836e-38
-0.39562753 0.23951307 0.80181205 1.1434769e-38
-0.39286417 0.23916136 0.80063462 1.1803552e-38
-0.39009041 0.23879935 0.79942274 1.1711355e-38
-0.38818836 0.23896989 0.79999369 1.1711355e-38
-0.38614929 0.23905756 0.80028713 1.1526963e-38
-0.38403565 0.23909977 0.80042845 1.180355e-38
-0.38191622 0.23913887 0.80055934 1.1619159e-38
-0.37923759 0.23882623 0.79951274 1.180355e-38
-0.37656036 0.23851088 0.79845703 1.1711355e-38
-0.37439543 0.23851821 0.79848158 1.1711355e-38
-0.37354457 0.23936771 0.80132544 1.1711355e-38
-0.37122256 0.23927894 0.80102825 1.1987942e-38
-0.36897954 0.23924033 0.80089903 1.1895746e-38
-0.36707118 0.23941953 0.80149895 1.1895746e-38
-0.36429688 0.23903272 0.80020398 1.1895746e-38
-0.36166888 0.23873779 0.79921669 1.180355e-38
-0.3589707 0.2383927 0.79806143 1.1526965e-38
-0.35670763 0.2383341 0.79786527 1.1803196e-38
-0.35454583 0.23834288 0.79789466 1.1803196e-38
-0.35198101 0.23807918 0.79701185 1.1895391e-38
-0.34990028 0.23814164 0.79722095 1.1803196e-38
-0.34741244 0.2379261 0.79649937 1.1987587e-38
-0.34510237 0.23783034 0.79617882 1.1987943e-38
-0.34254071 0.2375589 0.79527014 1.1987943e-38
-0.34016812 0.23741595 0.79479158 1.1895747e-38
-0.33805898 0.23745622 0.7949264 1.207942e-38
-0.33613986 0.23763134 0.79551262 1.2263811e-38
-0.33403367 0.23767564 0.79566091 1.2171615e-38
-0.33165705 0.23752683 0.7951628 1.2171615e-38
-0.32913855 0.2372738 0.7943157 1.2080139e-38
-0.32631806 0.23679824 0.79272372 1.1895747e-38
-0.32403502 0.23670897 0.79242486 1.2080139e-38
-0.3215501 0.23647006 0.79162502 1.226453e-38
-0.3198224 0.23678851 0.79269111 1.2171978e-38
-0.3176426 0.23677433 0.79264361 1.2264177e-38
-0.31575456 0.23697889 0.79332846 1.2079783e-38
-0.3133505 0.23679635 0.79271734 1.2171978e-38
-0.31106174 0.23669899 0.79239142 1.2079783e-38
-0.30857536 0.23644882 0.79155397 1.1987587e-38
-0.30629852 0.23635687 0.79124612 1.2079783e-38
-0.30342546 0.23580024 0.7893827 1.1987587e-38
-0.30078173 0.23541519 0.78809369 1.1987587e-38
-0.29822451 0.23509276 0.78701431 1.1895391e-38
-0.29623535 0.23521672 0.78742927 1.2079783e-38
-0.29432505 0.23540558 0.7880615 1.2171978e-38
-0.29232273 0.23552303 0.78845471 1.1987587e-38
-0.290447 0.23574501 0.7891978 1.2264174e-38
-0.2878933 0.23541591 0.78809607 1.2171978e-38
-0.28536502 0.23510277 0.7870478 1.2171978e-38
-0.2828387 0.23478656 0.78598922 1.2079783e-38
-0.28088155 0.23494157 0.78650814 1.2264174e-38
-0.27863801 0.23485757 0.78622699 1.2172334e-38
-0.27659339 0.23494126 0.78650713 1.2171978e-38
-0.27434435 0.23485124 0.78620577 1.1987587e-38
-0.27216378 0.23481889 0.78609747 1.2079783e-38
-0.26963016 0.23447901 0.78495967 1.2264174e-38
-0.26730064 0.23431258 0.78440249 1.235637e-38
-0.26531819 0.23445018 0.78486311 1.2172334e-38
-0.26340321 0.23465011 0.78553241 1.226453e-38
-0.26092723 0.23434944 0.78452593 1.235637e-38
-0.25831032 0.23391622 0.78307563 1.1987587e-38
-0.25624189 0.23397659 0.78327769 1.2264174e-38
-0.25444475 0.23428777 0.78431946 1.2171981e-38
-0.25220817 0.23419617 0.78401279 1.2079783e-38
-0.2496545 0.23380603 0.78270674 1.2171978e-38
-0.24726805 0.23356712 0.78190696 1.2264174e-38
-0.24520455 0.23363177 0.78212339 1.2080139e-38
-0.24259804 0.23317564 0.78059638 1.2171978e-38
-0.24044642 0.23315252 0.78051901 1.2171981e-38
-0.2379594 0.23280086 0.77934176 1.2079786e-38
-0.2358222 0.23278819 0.77929932 1.2079786e-38
-0.23311475 0.23220725 0.77735454 1.2264177e-38
-0.23125933 0.23247217 0.7782414 1.235637e-38
-0.22950967 0.23284927 0.77950382 1.2264174e-38
-0.22748056 0.23294728 0.77983189 1.2356726e-38
-0.2248356 0.23241051 0.77803499 1.2356726e-38
-0.2220936 0.23176226 0.77586484 1.226453e-38
-0.21971968 0.23148935 0.77495122 1.2448921e-38
-0.21762414 0.23150727 0.77501124 1.235637e-38
-0.21552503 0.23152171 0.77505958 1.235637e-38
-0.21333334 0.23143601 0.7747727 1.2448565e-38
-0.21108562 0.23128721 0.77427453 1.235637e-38
-0.20903507 0.2313536 0.77449679 1.235637e-38
-0.20685293 0.23127425 0.77423114 1.2448565e-38
-0.20453417 0.23103891 0.77344334 1.2448565e-38
-0.20195125 0.23049718 0.77162981 1.2632956e-38
-0.19970888 0.23033682 0.77109295 1.2264174e-38
-0.19763799 0.23037295 0.77121389 1.2356726e-38
-0.1954418 0.23026222 0.77084321 1.2633312e-38
-0.19318391 0.23007561 0.77021849 1.226453e-38
-0.19079624 0.22972862 0.76905692 1.2448921e-38
-0.18872003 0.22975311 0.76913887 1.226453e-38
-0.18671246 0.22986265 0.76950556 1.2448565e-38
-0.18453692 0.22976553 0.76918048 1.2540761e-38
-0.1822708 0.22955213 0.76846606 1.2448565e-38
-0.18012121 0.22948223 0.76823205 1.2171978e-38
-0.17787163 0.22928177 0.76756096 1.2264174e-38
-0.17591767 0.22946215 0.76816481 1.2540761e-38
-0.17364547 0.22922677 0.76737684 1.2541117e-38
-0.1717165 0.22944427 0.76810497 1.2632956e-38
-0.16922575 0.22890724 0.76630718 1.2448568e-38
-0.16692564 0.22861786 0.76533842 1.2632959e-38
-0.16470596 0.22843274 0.76471871 1.2540764e-38
-0.16277549 0.22864908 0.76544297 1.2448568e-38
-0.1608368 0.22885938 0.76614696 1.2817348e-38
-0.15869188 0.22877789 0.76587415 1.2725152e-38
-0.15656349 0.22871837 0.76567489 1.2632959e-38
-0.15439968 0.22860481 0.76529473 1.2632959e-38
-0.15233909 0.22864304 0.76542276 1.2540761e-38
-0.15016691 0.22851256 0.76498592 1.2725152e-38
-0.14793377 0.22828428 0.76422173 1.2632956e-38
-0.14551616 0.22776079 0.76246923 1.2632956e-38
-0.143262 0.22748166 0.76153481 1.2540761e-38
-0.14117023 0.22745597 0.7614488 1.2725152e-38
-0.13870969 0.22682646 0.75934142 1.2725152e-38
-0.1369044 0.22726564 0.76081163 1.2725152e-38
-0.13494079 0.22745144 0.76143366 1.2817704e-38
-0.13288175 0.22747971 0.76152825 1.2448921e-38
-0.13061012 0.22713915 0.7603882 1.2632956e-38
-0.12849782 0.22706918 0.76015395 1.2632956e-38
-0.12653747 0.22726983 0.76082563 1.2541117e-38
-0.12426449 0.22690627 0.75960857 1.2633312e-38
-0.12195621 0.22646487 0.75813091 1.2632956e-38
-0.11977299 0.22624448 0.75739312 1.2632956e-38
-0.11784912 0.22651485 0.75829822 1.2817348e-38
-0.11597075 0.22688387 0.75953358 1.2817348e-38
-0.11381846 0.22672069 0.75898731 1.2908827e-38
-0.11183763 0.22689933 0.75958532 1.2908827e-38
-0.1094901 0.22632669 0.75766832 1.2725155e-38
-0.10749732 0.22647946 0.75817972 1.2725155e-38
-0.10510915 0.22578882 0.75586772 1.2817351e-38
-0.10311826 0.22594106 0.7563774 1.2725155e-38
-0.10092804 0.22565387 0.75541598 1.2632956e-38
-0.099081814 0.22613983 0.75704277 1.2817348e-38
-0.096982956 0.22605759 0.75676745 1.2817348e-38
-0.094919942 0.22605714 0.75676596 1.2817348e-38
-0.092759572 0.22581966 0.75597095 1.2725155e-38
-0.090727836 0.22589168 0.75621206 1.2817351e-38
-0.088576555 0.22566245 0.75544471 1.2817351e-38
-0.086440042 0.22546087 0.75476986 1.2909549e-38
-0.084259346 0.22513138 0.75366682 1.2725158e-38
-0.08223287 0.22520779 0.75392264 1.2909549e-38
-0.08027406 0.22547817 0.7548278 1.3093937e-38
-0.078335598 0.22582144 0.75597692 1.3001745e-38
-0.076251596 0.22575237 0.75574571 1.3093221e-38
-0.07410083 0.22547631 0.75482154 1.3001026e-38
-0.072011553 0.22537692 0.75448883 1.3093221e-38
-0.070007108 0.225545 0.75505149 1.3093219e-38
-0.067972377 0.22562276 0.75531179 1.3185414e-38
-0.065832525 0.22534549 0.75438362 1.3277613e-38
-0.063657865 0.22492741 0.75298399 1.3370527e-38
-0.061541852 0.22469555 0.75220782 1.3186136e-38
-0.059482008 0.22465988 0.75208837 1.3186136e-38
-0.057466064 0.22479337 0.75253528 1.3462723e-38
-0.055423673 0.22482948 0.75265616 1.3277613e-38
-0.053425733 0.22505561 0.75341314 1.35542e-38
-0.051396735 0.22516374 0.75377518 1.35542e-38
-0.049322132 0.22507279 0.75347066 1.346272e-38
-0.047177754 0.2246417 0.75202751 1.4292481e-38
-0.045080759 0.2244073 0.75124282 1.4476872e-38
-0.04306975 0.22459897 0.75188452 1.4569068e-38
-0.04103411 0.22467496 0.75213885 1.5490305e-38
-0.039005581 0.22479993 0.75255722 1.5490305e-38
-0.036957357 0.22481892 0.75262082 1.585909e-38
-0.034982733 0.22531423 0.75427896 1.6412264e-38
-0.032892119 0.22507766 0.75348699 1.7057633e-38
-0.030802589 0.2248175 0.75261605 1.6873242e-38
-0.028671172 0.22419268 0.75052434 1.7610807e-38
-0.026620334 0.22415033 0.7503826 1.7887394e-38
-0.024547521 0.2239005 0.74954623 1.8440568e-38
-0.022454077 0.22340006 0.74787092 1.9178133e-38
-0.020346723 0.22264744 0.74535143 1.9362524e-38
-0.018325146 0.2227706 0.74576372 1.9639111e-38
-0.016309375 0.22300388 0.74654466 1.9823502e-38
-0.014292752 0.22329038 0.74750376 2.0100092e-38
-0.012229781 0.22282769 0.74595481 2.0192288e-38
-0.010186719 0.2226155 0.74524444 2.056107e-38
-0.0081511354 0.22250178 0.74486381 2.0561067e-38
-0.0061184922 0.22241947 0.74458826 2.0653263e-38
-0.0040898323 0.22247216 0.74476463 2.0284483e-38
-0.0020600015 0.22250222 0.74486524 2.0007896e-38
-2.9603574e-05 0.22239369 0.74450195 2.0007894e-38
0.0019989382 0.22229901 0.74418497 2.0100089e-38
0.0040265806 0.22225006 0.74402112 2.0100089e-38
0.0060466724 0.22195674 0.74303919 2.0467793e-38
0.0080793994 0.22215807 0.74371314 2.0652187e-38
0.010104067 0.22210145 0.7435236 2.03756e-38
0.012158155 0.22260244 0.74520075 2.0191209e-38
0.014147537 0.22194485 0.74299937 2.0006817e-38
0.016174125 0.22196254 0.74305856 1.9915701e-38
0.018195519 0.22191298 0.74289268 1.9823502e-38
0.020277355 0.22253667 0.74498057 1.9823502e-38
0.022327956 0.22273521 0.74564523 1.9915698e-38
0.024314392 0.22231396 0.74423498 2.0006815e-38
0.026369259 0.22253507 0.74497521 1.9730228e-38
0.028428413 0.22275816 0.74572206 1.9545836e-38
0.030557208 0.22346075 0.74807411 1.9638032e-38
0.032616392 0.22359823 0.74853432 1.9545836e-38
0.034678798 0.22374031 0.74900997 1.9545839e-38
0.036750264 0.22392178 0.74961746 1.9453644e-38
0.03882933 0.22412801 0.75030786 1.9545839e-38
0.040843893 0.22395991 0.74974513 1.9545836e-38
0.042896647 0.22400728 0.74990368 1.9638032e-38
0.044903949 0.22382377 0.74928939 1.9730228e-38
0.047015648 0.22415397 0.75039476 1.9362524e-38
0.049059484 0.22414656 0.75036997 1.9270329e-38
0.051158614 0.22438228 0.75115907 1.9270329e-38
0.053201146 0.22436117 0.75108838 1.9270329e-38
0.055285186 0.22451016 0.75158721 1.9085937e-38
0.057298072 0.2243699 0.75111765 1.8901543e-38
0.059378371 0.22449417 0.75153369 1.9085935e-38
0.061390113 0.22435963 0.75108325 1.8993739e-38
0.063337699 0.22400685 0.74990225 1.8901543e-38
0.065271631 0.22362937 0.74863857 1.8717152e-38
0.067266822 0.22347827 0.74813277 1.8532761e-38
0.069510192 0.22413632 0.75033569 1.8624956e-38
0.071649931 0.22443217 0.75132608 1.8625312e-38
0.073660038 0.22431678 0.75093979 1.8993739e-38
0.075599775 0.22399914 0.74987644 1.9085935e-38
0.077576421 0.2238047 0.7492255 1.8809348e-38
0.079686455 0.22399516 0.74986315 1.8624959e-38
0.081660785 0.22380421 0.74922389 1.8532764e-38
0.083734542 0.22388841 0.74950576 1.8624959e-38
0.085689083 0.22365744 0.74873257 1.8624959e-38
0.087821268 0.2238901 0.74951142 1.8532764e-38
0.089834459 0.22381571 0.74926239 1.8716076e-38
0.091950811 0.22399592 0.74986571 1.8531685e-38
0.093936086 0.22385597 0.74939716 1.8347293e-38
0.095911294 0.22369847 0.7488699 1.8347296e-38
0.098133847 0.22411241 0.75025564 1.8347293e-38
0.10023324 0.22423393 0.75066245 1.8256177e-38
0.10247348 0.22465937 0.7520867 1.8163981e-38
0.10438148 0.224354 0.75106442 1.8348372e-38
0.10653675 0.22458164 0.75182647 1.8348372e-38
0.10876875 0.22495939 0.75309104 1.8163981e-38
0.11096732 0.22525527 0.75408155 1.8163984e-38
0.11290085 0.22501217 0.75326777 1.8163984e-38
0.11452579 0.22417372 0.75046092 1.7979593e-38
0.11635605 0.22375953 0.74907434 1.7795201e-38
0.11813229 0.22325754 0.74739385 1.7795201e-38
0.11998246 0.22290993 0.74623013 1.7703006e-38
0.12172987 0.22238618 0.7444768 1.7887397e-38
0.12347875 0.22188224 0.74278975 1.7795201e-38
0.12547201 0.22182661 0.74260354 1.7703003e-38
0.1276239 0.22204874 0.74334717 1.7795198e-38
0.12949218 0.2217782 0.74244148 1.797959e-38
0.13142574 0.22162606 0.74193215 1.7979953e-38
0.13304549 0.22095738 0.73969364 1.8072504e-38
0.13532351 0.22138557 0.74112707 1.8440568e-38
0.13739274 0.2214646 0.74139166 1.8348372e-38
0.13944745 0.22151829 0.74157137 1.8624959e-38
0.14148372 0.22154158 0.74164933 1.8809353e-38
0.14342472 0.22141713 0.74123269 1.8717158e-38
0.14530055 0.2211969 0.7404955 1.8901549e-38
0.14717959 0.22098754 0.73979461 1.8993744e-38
0.14927012 0.22109711 0.74016142 1.9177778e-38
0.1513337 0.22116436 0.74038655 1.9269974e-38
0.15337931 0.22120392 0.74051899 1.9270331e-38
0.15505417 0.22071472 0.73888129 1.9362527e-38
0.15713274 0.22080536 0.73918474 1.9639114e-38
0.15928805 0.22100016 0.73983687 1.9731307e-38
0.16130203 0.22099647 0.73982447 1.9639111e-38
0.16292758 0.22046725 0.73805285 1.9823502e-38
0.16448867 0.2198648 0.736036 1.9915698e-38
0.16660418 0.22000898 0.73651868 1.9915698e-38
0.16852012 0.21988934 0.7361182 2.0007894e-38
0.17073101 0.22015285 0.73700035 2.0100089e-38
0.17210174 0.21933946 0.73427737 2.0008612e-38
0.17395222 0.21914919 0.73364037 2.0008612e-38
0.17568877 0.21882133 0.73254281 2.0100808e-38
0.17809135 0.21932104 0.73421568 2.0193004e-38
0.18003187 0.21924695 0.73396766 2.0192285e-38
0.1820603 0.21928039 0.7340796 2.0192285e-38
0.18679824 0.22254103 0.74499518 0
-0.42160621 0.18070248 0.59946305 2.2162838e-39
-0.42668968 0.18359284 0.60905153 0
-0.42502952 0.18359284 0.60905153 2.3084795e-39
-0.43002537 0.18647921 0.61862677 0
-0.43668145 0.19011109 0.6306752 0
-0.58810884 0.27097014 0.89891732 0
-0.58430982 0.27034613 0.89684719 3.9665673e-39
-0.58220112 0.27050221 0.89736497 4.9807192e-39
-0.57151133 0.26665586 0.88460505 6.3640096e-39
-0.56434548 0.26442808 0.87721467 7.1019292e-39
-0.5210821 0.24944115 0.82749695 9.682332e-39
-0.51975179 0.24988602 0.82897276 9.9589189e-39
-0.51698792 0.24964257 0.82816511 1.0235506e-38
-0.51588881 0.25020435 0.83002877 1.0051115e-38
-0.51327103 0.25003129 0.82945466 9.7748836e-39
-0.51117545 0.25011218 0.82972306 9.9589189e-39
-0.50831562 0.24981825 0.82874793 1.0327701e-38
-0.50594831 0.24976479 0.8285706 1.0051115e-38
-0.50284696 0.24934685 0.82718414 1.0235506e-38
-0.49702451 0.24756978 0.82128888 1.0511372e-38
-0.49478579 0.24756978 0.82128888 1.078868e-38
-0.49271205 0.24765271 0.82156396 1.0604288e-38
-0.48961973 0.24722207 0.82013535 1.0696484e-38
-0.48870781 0.24789347 0.82236266 1.0604288e-38
-0.48362163 0.24644394 0.817554 1.0881594e-38
-0.48100233 0.24624389 0.81689036 1.1065985e-38
-0.47815886 0.24592668 0.81583804 1.097379e-38
-0.47891471 0.24862809 0.82479972 1.1065985e-38
-0.4733111 0.24687795 0.81899381 1.097379e-38
-0.47059953 0.24662687 0.81816083 1.097379e-38
-0.46807396 0.24647132 0.81764483 1.1250377e-38
-0.46490505 0.2459739 0.81599468 1.1342572e-38
-0.46208721 0.24565834 0.81494784 1.1434768e-38
-0.45986578 0.24565834 0.81494784 1.1250377e-38
-0.45691767 0.24526826 0.81365377 1.1065985e-38
-0.4533062 0.24451654 0.81116003 1.1434049e-38
-0.45036229 0.24411932 0.80984229 1.1526246e-38
-0.44774854 0.24389803 0.8091082 1.143405e-38
-0.446049 0.244175 0.810027 1.1434769e-38
-0.44324747 0.24384847 0.80894381 1.1250378e-38
-0.44073212 0.24367692 0.80837464 1.1526965e-38
-0.43929535 0.24410297 0.80978805 1.1250378e-38
-0.43751237 0.24433996 0.81057423 1.1803552e-38
-0.43546697 0.24443208 0.81087983 1.1526965e-38
-0.432715 0.24412648 0.80986607 1.1434769e-38
-0.43007261 0.24387993 0.80904812 1.1342574e-38
-0.42771474 0.24379298 0.80875969 1.161916e-38
-0.42492765 0.24345922 0.80765247 1.1342574e-38
-0.42281637 0.24351119 0.80782485 1.1342574e-38
-0.42011282 0.24322084 0.80686164 1.1434768e-38
-0.41825342 0.24341868 0.80751801 1.1619159e-38
-0.41617414 0.24349 0.80775458 1.1342572e-38
-0.41370612 0.24333341 0.80723512 1.1711355e-38
-0.41144121 0.24329527 0.80710858 1.1526965e-38
-0.40894336 0.24311821 0.80652124 1.161916e-38
-0.40654936 0.24300134 0.80613351 1.1526609e-38
-0.40400723 0.24279416 0.80544621 1.1434413e-38
-0.40181172 0.24279416 0.80544621 1.1342218e-38
-0.39954346 0.24274997 0.80529964 1.1526609e-38
-0.39685974 0.24245147 0.80430937 1.1342574e-38
-0.39390102 0.24198072 0.80274767 1.1526965e-38
-0.39130598 0.24172936 0.80191386 1.161916e-38
-0.38944113 0.2419288 0.80257547 1.161916e-38
-0.38711342 0.24184135 0.80228531 1.1619159e-38
-0.38492897 0.24184287 0.80229038 1.1526963e-38
-0.38235837 0.24160044 0.80148613 1.1619159e-38
-0.37978584 0.24135397 0.80066854 1.180355e-38
-0.37740728 0.24122865 0.8002528 1.1619159e-38
-0.37561026 0.24147575 0.80107248 1.1619159e-38
-0.37277076 0.2410516 0.79966545 1.1711355e-38
-0.37070894 0.24112833 0.79991996 1.1711355e-38
-0.36816308 0.24088924 0.7991268 1.1434768e-38
-0.3663328 0.2411183 0.7998867 1.1711355e-38
-0.36323369 0.24050997 0.79786861 1.1895746e-38
-0.3603285 0.24002346 0.79625469 1.1526963e-38
-0.3579067 0.23985504 0.79569596 1.161916e-38
-0.35590771 0.23996961 0.79607606 1.1711356e-38
-0.35388029 0.24006633 0.79639691 1.1526612e-38
-0.35119134 0.23971269 0.79522371 1.1711e-38
-0.34880358 0.23956151 0.7947222 1.1711e-38
-0.34650692 0.23947142 0.79442334 1.1711e-38
-0.34427401 0.23942453 0.79426777 1.1711356e-38
-0.34200206 0.23934969 0.79401952 1.2080139e-38
-0.33931032 0.23897828 0.79278737 1.1895747e-38
-0.33734754 0.23911878 0.79325348 1.1803552e-38
-0.33512285 0.23907426 0.79310578 1.1895029e-38
-0.33340493 0.23939303 0.79416329 1.1895029e-38
-0.33088711 0.23913787 0.79331684 1.2080137e-38
-0.32807842 0.23866774 0.79175723 1.1895747e-38
-0.32497638 0.2379766 0.78946441 1.1987943e-38
-0.32295191 0.23807056 0.78977615 1.1895747e-38
-0.32079861 0.23807019 0.78977489 1.1987943e-38
-0.31907868 0.23839362 0.79084784 1.1895391e-38
-0.31685388 0.23834164 0.7906754 1.1895391e-38
-0.31489724 0.23849209 0.79117447 1.2079783e-38
-0.31262305 0.23840241 0.79087698 1.1987587e-38
-0.31024295 0.23823017 0.79030561 1.2079783e-38
-0.30796671 0.23813584 0.78999269 1.1987587e-38
-0.30548552 0.23788059 0.78914589 1.2171978e-38
-0.30270091 0.23738377 0.78749776 1.1987587e-38
-0.29995492 0.23691037 0.7859273 1.2079783e-38
-0.29747072 0.2366384 0.78502506 1.1987587e-38
-0.29534981 0.23665358 0.78507543 1.1895747e-38
-0.29349154 0.23688096 0.78582972 1.2171978e-38
-0.2914958 0.2369999 0.78622431 1.2080139e-38
-0.28964666 0.2372407 0.78702313 1.1895747e-38
-0.28710425 0.23691301 0.78593606 1.2172334e-38
-0.28474239 0.2367305 0.78533059 1.1987587e-38
-0.28203943 0.23625951 0.78376812 1.2264174e-38
-0.2800999 0.2364257 0.78431946 1.1895391e-38
-0.2779825 0.23644315 0.78437734 1.2080139e-38
-0.27594241 0.23652714 0.78465599 1.1987943e-38
-0.27376583 0.23649457 0.78454792 1.2172334e-38
-0.27144983 0.23634005 0.78403533 1.1987943e-38
-0.26882297 0.23591031 0.7826097 1.1895391e-38
-0.26597017 0.23527382 0.78049821 1.2080139e-38
-0.26385045 0.23528078 0.78052127 1.2171978e-38
-0.26184013 0.23538619 0.78087097 1.2171978e-38
-0.25943992 0.23513994 0.78005403 1.2264174e-38
-0.25707167 0.23491886 0.77932066 1.2079786e-38
-0.25538296 0.23532021 0.78065211 1.1895394e-38
-0.25383613 0.23586017 0.78244334 1.2171981e-38
-0.25158808 0.2357522 0.78208518 1.2264177e-38
-0.24894339 0.23526752 0.78047729 1.2079783e-38
-0.24643897 0.23490819 0.77928525 1.2264174e-38
-0.24411704 0.23471807 0.77865458 1.2079783e-38
-0.24181508 0.23454399 0.77807707 1.235637e-38
-0.23975122 0.23459983 0.77826232 1.235637e-38
-0.23768224 0.2346516 0.77843404 1.2171978e-38
-0.234998 0.23409142 0.77657568 1.235637e-38
-0.23250201 0.23371027 0.77531129 1.235637e-38
-0.23069224 0.23401825 0.77633297 1.2448921e-38
-0.22888161 0.23433106 0.77737069 1.2356726e-38
-0.22674046 0.23430815 0.7772947 1.2356726e-38
-0.22377174 0.23342156 0.7743535 1.2356726e-38
-0.22137202 0.23311728 0.7733441 1.2264174e-38
-0.21876422 0.23258591 0.77158129 1.1987587e-38
-0.21663393 0.23255683 0.77148485 1.2079783e-38
-0.2146365 0.23267123 0.77186435 1.2264177e-38
-0.21263945 0.23278828 0.77225268 1.2356372e-38
-0.21054889 0.2328043 0.77230579 1.2540761e-38
-0.20844704 0.23280801 0.77231812 1.235637e-38
-0.20599432 0.23241593 0.77101743 1.2264174e-38
-0.20372735 0.2322275 0.77039236 1.235637e-38
-0.2012766 0.23182347 0.76905203 1.2264174e-38
-0.19925539 0.23191088 0.76934201 1.235637e-38
-0.19717665 0.23193249 0.76941365 1.235637e-38
-0.19497779 0.23181175 0.76901311 1.235637e-38
-0.19279465 0.23170726 0.76866651 1.235637e-38
-0.19022398 0.23112962 0.76675022 1.2264174e-38
-0.18820979 0.23122279 0.76705933 1.2172334e-38
-0.18619186 0.23131344 0.76736003 1.226453e-38
-0.18410383 0.23131806 0.76737535 1.2540761e-38
-0.18183751 0.23109618 0.76663929 1.235637e-38
-0.1794275 0.23068443 0.76527333 1.2264174e-38
-0.17705721 0.23031463 0.76404655 1.2264174e-38
-0.17505582 0.2304216 0.76440144 1.2448205e-38
-0.1729508 0.23039313 0.76430696 1.2540401e-38
-0.17109749 0.23070335 0.7653361 1.2264174e-38
-0.16888554 0.23053166 0.76476657 1.2448568e-38
-0.16678452 0.23050903 0.76469147 1.2264177e-38
-0.16451085 0.23024416 0.76381278 1.2448568e-38
-0.16214897 0.22984746 0.76249677 1.2356372e-38
-0.1601283 0.22993043 0.76277202 1.2171978e-38
-0.15810367 0.23000981 0.76303536 1.2448568e-38
-0.15621498 0.23029172 0.76397055 1.2540764e-38
-0.15402971 0.23013809 0.76346093 1.2356372e-38
-0.15192692 0.23010522 0.76335186 1.235637e-38
-0.14971453 0.2299031 0.76268137 1.2540761e-38
-0.14753863 0.22975212 0.76218051 1.2540761e-38
-0.14532365 0.2295351 0.76146054 1.2725152e-38
-0.14298731 0.22911733 0.76007468 1.2448565e-38
-0.14077711 0.22889237 0.75932837 1.2540761e-38
-0.13853864 0.22861406 0.75840509 1.2633312e-38
-0.13661137 0.22884862 0.75918323 1.2264174e-38
-0.13446243 0.22871335 0.75873446 1.2725508e-38
-0.13214934 0.22829027 0.75733095 1.2356726e-38
-0.13000233 0.22814523 0.75684977 1.2725508e-38
-0.12810411 0.22843915 0.75782484 1.2448921e-38
-0.12621236 0.22875446 0.75887084 1.2356726e-38
-0.12385615 0.2282244 0.75711244 1.2633312e-38
-0.12165762 0.22797188 0.7562747 1.2632956e-38
-0.1195394 0.22786374 0.755916 1.2817704e-38
-0.11749591 0.22789675 0.75602549 1.2725508e-38
-0.11540624 0.22783977 0.75583643 1.2725508e-38
-0.11321221 0.22757092 0.75494456 1.2724792e-38
-0.11128823 0.22784503 0.75585389 1.3001379e-38
-0.1090444 0.22746226 0.75458413 1.2632959e-38
-0.10698726 0.2274617 0.75458223 1.2632959e-38
-0.10468636 0.22693272 0.75282741 1.2817351e-38
-0.10259067 0.22683631 0.75250757 1.2632956e-38
-0.10047838 0.2266985 0.7520504 1.2632956e-38
-0.098667897 0.22725007 0.7538802 1.2632956e-38
-0.096651375 0.22734049 0.75418013 1.2817348e-38
-0.094633304 0.22743109 0.75448072 1.2540761e-38
-0.092391543 0.22697619 0.75297159 1.2909546e-38
-0.090248115 0.22674769 0.7522136 1.2817351e-38
-0.08804293 0.22634979 0.75089359 1.2909546e-38
-0.085889645 0.22606955 0.74996394 1.2817351e-38
-0.083801441 0.22595112 0.74957103 1.2632959e-38
-0.081694141 0.22577399 0.74898344 1.2540764e-38
-0.079720035 0.22596535 0.74961823 1.2725155e-38
-0.077769786 0.22623615 0.75051659 1.2909546e-38
-0.075689152 0.22613205 0.75017124 1.3001742e-38
-0.073522992 0.22575954 0.74893546 1.2632959e-38
-0.071436256 0.2256166 0.74846131 1.2909546e-38
-0.069462664 0.22583309 0.74917948 1.2725155e-38
-0.067429431 0.22586294 0.74927849 1.3001742e-38
-0.0652669 0.22544803 0.7479021 1.3001742e-38
-0.063202642 0.22535676 0.7475993 1.3001742e-38
-0.06105274 0.22494385 0.74622953 1.3186133e-38
-0.059100445 0.22525565 0.74726391 1.309394e-38
-0.057092261 0.2253691 0.74764025 1.2909549e-38
-0.055063557 0.22540694 0.74776578 1.3001742e-38
-0.052956823 0.22511598 0.74680054 1.3185414e-38
-0.050873421 0.22490492 0.74610037 1.3001742e-38
-0.048847277 0.22493994 0.74621654 1.3278329e-38
-0.046775833 0.22476034 0.74562073 1.3186136e-38
-0.044682793 0.22445595 0.74461097 1.3278329e-38
-0.042707387 0.22474161 0.74555862 1.3186133e-38
-0.040671226 0.22472012 0.74548733 1.3186133e-38
-0.038655657 0.22481616 0.74580592 1.3462001e-38
-0.036577061 0.22453593 0.74487627 1.3369808e-38
-0.03458894 0.22481082 0.74578822 1.3277613e-38
-0.032497093 0.22440375 0.74443781 1.3093221e-38
-0.030425612 0.22409247 0.74340516 1.3277613e-38
-0.028324952 0.22350653 0.74146134 1.309394e-38
-0.026347117 0.22387421 0.74268109 1.3278332e-38
-0.024318529 0.22383592 0.74255407 1.3554918e-38
-0.022275569 0.2236464 0.74192536 1.3186136e-38
-0.020179652 0.22283426 0.73923117 1.3370527e-38
-0.018167268 0.22286667 0.7393387 1.3462004e-38
-0.01616733 0.22307889 0.74004269 1.3462004e-38
-0.014170866 0.22340639 0.74112916 1.3646395e-38
-0.012131051 0.22304575 0.73993278 1.35542e-38
-0.010110326 0.22296223 0.73965567 1.3646395e-38
-0.0080868723 0.22276196 0.73899132 1.3369808e-38
-0.006066876 0.22255562 0.73830682 1.3462004e-38
-0.0040442743 0.22200148 0.73646849 1.35542e-38
-0.0020356611 0.22187959 0.73606414 1.4015178e-38
-2.9276596e-05 0.22194429 0.73627877 1.4015178e-38
0.0019809348 0.22230715 0.73748249 1.3185417e-38
0.0039919312 0.2223482 0.73761868 1.3185417e-38
0.006003479 0.22238217 0.7377314 1.3645316e-38
0.0080107218 0.22227967 0.73739135 1.3553121e-38
0.010020016 0.22226377 0.7373386 1.4014101e-38
0.012023548 0.22214673 0.73695034 1.4198493e-38
0.013994629 0.22154948 0.73496902 1.4476159e-38
0.015985273 0.22137268 0.73438251 1.4476159e-38
0.017985353 0.2213514 0.73431194 1.5121525e-38
0.020019507 0.22171175 0.73550737 1.5213721e-38
0.022032006 0.2217885 0.73576194 1.5674696e-38
0.023978384 0.22124237 0.7339502 1.6226794e-38
0.026015604 0.22155397 0.73498392 1.6687772e-38
0.028018901 0.22155276 0.73497993 1.6872163e-38
0.030140432 0.22242425 0.73787099 1.714875e-38
0.032098718 0.22205737 0.73665392 1.7978511e-38
0.034110472 0.22208181 0.73673499 1.8162902e-38
0.036067359 0.22176616 0.73568785 1.8255098e-38
0.038106199 0.22196114 0.73633468 1.8255098e-38
0.040091053 0.22183786 0.73592573 1.8716076e-38
0.042114537 0.22192992 0.73623109 1.8992663e-38
0.044080775 0.22172566 0.7355535 1.8531685e-38
0.046134911 0.22196206 0.73633772 1.8348372e-38
0.048166171 0.22207326 0.73670661 1.8256177e-38
0.050260216 0.22245346 0.73796791 1.8071785e-38
0.052247044 0.22234812 0.73761845 1.7887394e-38
0.054180961 0.22203375 0.73657554 1.8071785e-38
0.056110017 0.22172265 0.73554349 1.8071783e-38
0.058146149 0.22184151 0.73593783 1.7979587e-38
0.060341038 0.22253796 0.73824823 1.8163978e-38
0.062367324 0.22258772 0.73841327 1.7979587e-38
0.064336203 0.22243588 0.73790956 1.8071783e-38
0.066135705 0.22172539 0.73555261 1.8071783e-38
0.068334773 0.22235689 0.73764753 1.8164334e-38
0.070373215 0.22244455 0.73793834 1.8348725e-38
0.072455078 0.22266077 0.73865563 1.8440565e-38
0.074375086 0.22238137 0.73772871 1.8532761e-38
0.076350957 0.2222793 0.7373901 1.8532761e-38
0.078361079 0.22227959 0.73739111 1.8624959e-38
0.080352791 0.222229 0.73722327 1.8624959e-38
0.082463562 0.2225021 0.73812926 1.8348372e-38
0.084422827 0.22236314 0.73766828 1.8532764e-38
0.08654391 0.22264695 0.73860979 1.8716076e-38
0.088499233 0.22250111 0.73812598 1.8531685e-38
0.09059605 0.22270958 0.73881757 1.862388e-38
0.092550196 0.2225659 0.73834091 1.862388e-38
0.094573818 0.22259185 0.73842698 1.8531685e-38
0.096568048 0.22254898 0.73828477 1.8439489e-38
0.098551989 0.22248462 0.73807126 1.8347293e-38
0.10058527 0.22253202 0.7382285 1.8347293e-38
0.10261616 0.22257236 0.73836231 1.8163981e-38
0.10465319 0.22262417 0.73853421 1.8348372e-38
0.10689268 0.22309662 0.74010152 1.8256177e-38
0.10875288 0.22277461 0.73903328 1.8163981e-38
0.1106577 0.22255404 0.73830158 1.7887394e-38
0.11225134 0.2217267 0.73555696 1.7887394e-38
0.11421724 0.22165081 0.73530519 1.797959e-38
0.11595006 0.22113299 0.73358738 1.7703003e-38
0.11793889 0.22111273 0.73352015 1.7795198e-38
0.1197715 0.22080512 0.73249972 1.7703003e-38
0.12147652 0.22027627 0.73074526 1.7795198e-38
0.12336897 0.22009885 0.73015672 1.797959e-38
0.12559134 0.22050634 0.73150849 1.7703003e-38
0.12764549 0.22061035 0.73185354 1.7887394e-38
0.12951232 0.22039236 0.73113042 1.8163981e-38
0.13121343 0.21990328 0.72950792 1.8256177e-38
0.13350762 0.2204079 0.73118198 1.8256177e-38
0.13537386 0.22020157 0.73049748 1.8348372e-38
0.1375044 0.22042491 0.73123837 1.8532764e-38
0.13945024 0.22035 0.73098987 1.8717158e-38
0.14168642 0.22072954 0.73224896 1.8809353e-38
0.1436621 0.22069833 0.73214543 1.8809353e-38
0.14555918 0.22054888 0.73164964 1.8993744e-38
0.14748478 0.22044612 0.73130876 1.9085583e-38
0.149376 0.2202954 0.73080873 1.9085583e-38
0.15159261 0.22062217 0.73189276 1.9085583e-38
0.15362063 0.22066957 0.73205 1.9270331e-38
0.15587945 0.22104304 0.73328894 1.9454723e-38
0.15744297 0.22043356 0.73126709 1.945472e-38
0.15944776 0.22044943 0.73131973 1.9546915e-38
0.1610339 0.21989323 0.7294746 1.9639114e-38
0.16305086 0.21993172 0.72960228 1.973131e-38
0.1648839 0.21972418 0.72891378 1.9823148e-38
0.16687378 0.2197281 0.72892678 1.9915701e-38
0.1691089 0.22005105 0.72999811 2.0100089e-38
0.17063653 0.21945658 0.72802603 2.0007894e-38
0.17244993 0.21923907 0.72730446 1.9916417e-38
0.17433029 0.21911067 0.72687852 2.0008612e-38
0.17656615 0.21942697 0.7279278 2.0100808e-38
0.17843199 0.21928149 0.72744519 2.0193004e-38
0.18000464 0.21878286 0.72579104 2.0100089e-38
0.1839105 0.22110008 0.73347819 0
-0.41863033 0.18104951 0.59523177 1.939697e-39
-0.4226056 0.18347986 0.60322195 0
-0.42096132 0.18347986 0.60322195 2.1240882e-39
-0.42572868 0.18628539 0.61244565 0
-0.43291301 0.19017476 0.62523264 0
-0.44032413 0.1941949 0.63844955 0
-0.59296173 0.27227339 0.89514619 2.5836328e-39
-0.59136194 0.27266082 0.89641988 2.4914372e-39
-0.58891845 0.27266082 0.89641988 2.5836328e-39
-0.58810884 0.27342045 0.89891732 2.8612987e-39
-0.57018363 0.27072653 0.8900606 2.1226463e-39
-0.56103605 0.26752153 0.87952363 2.3992304e-39
-0.4656193 0.2497745 0.82117712 1.1341853e-38
-0.46017835 0.24804823 0.81550175 1.1341853e-38
-0.45795542 0.24804823 0.81550175 1.1341855e-38
-0.4544242 0.24733615 0.81316066 1.1249658e-38
-0.45124578 0.24681005 0.81143099 1.1341855e-38
-0.44712663 0.24576169 0.80798435 1.1157466e-38
-0.44530699 0.24597314 0.80867952 1.1157466e-38
-0.44242701 0.24559808 0.80744642 1.1065271e-38
-0.44041923 0.24570586 0.80780077 1.1065631e-38
-0.43839505 0.24580552 0.80812842 1.1342574e-38
-0.4366461 0.2460613 0.80896932 1.1158182e-38
-0.43465546 0.24618278 0.80936873 1.143405e-38
-0.43114415 0.2454398 0.80692607 1.1526246e-38
-0.42827961 0.24505931 0.80567515 1.1341855e-38
-0.42574289 0.24486342 0.80503112 1.1342574e-38
-0.42305771 0.24457969 0.80409831 1.1158182e-38
-0.42118281 0.24476387 0.80470383 1.1158182e-38
-0.41880956 0.24465887 0.8043586 1.1158181e-38
-0.41707072 0.24492531 0.80523455 1.1342572e-38
-0.41495872 0.24497427 0.80539554 1.1434768e-38
-0.41283414 0.24501629 0.80553371 1.1526963e-38
-0.41096333 0.24521017 0.80617112 1.161916e-38
-0.4082633 0.24490871 0.80518001 1.1342218e-38
-0.4052428 0.24441071 0.80354273 1.1157826e-38
-0.40232384 0.24396886 0.80209011 1.1618805e-38
-0.40029728 0.24406631 0.80241048 1.1342218e-38
-0.39811003 0.24406631 0.80241048 1.1434769e-38
-0.39593884 0.24407619 0.80244297 1.1434769e-38
-0.39382988 0.24412479 0.80260271 1.161916e-38
-0.39070347 0.24353968 0.80067909 1.161916e-38
-0.38863105 0.2436087 0.800906 1.1434769e-38
-0.38555643 0.24304673 0.79905844 1.161916e-38
-0.3842116 0.24357499 0.8007952 1.1342574e-38
-0.38188916 0.243486 0.8005026 1.161916e-38
-0.37936974 0.24326965 0.79979134 1.1250377e-38
-0.37650496 0.24282807 0.79833955 1.1434768e-38
-0.374888 0.24319081 0.79953212 1.1526963e-38
-0.37290704 0.24332029 0.79995781 1.1526963e-38
-0.37097827 0.24348554 0.80050111 1.1526963e-38
-0.36827439 0.24314101 0.79936838 1.1434768e-38
-0.36630261 0.24327861 0.79982078 1.180355e-38
-0.36356619 0.24290697 0.79859895 1.180355e-38
-0.36134571 0.24287766 0.79850256 1.1895746e-38
-0.35894042 0.24272299 0.79799408 1.1711356e-38
-0.35680336 0.24274895 0.79807943 1.1895391e-38
-0.35435134 0.24255963 0.79745698 1.1618805e-38
-0.35191247 0.24237703 0.79685664 1.1711003e-38
-0.3495146 0.24222057 0.79634225 1.1618805e-38
-0.34734887 0.24222402 0.79635364 1.2171978e-38
-0.34509853 0.24216814 0.79616994 1.161916e-38
-0.34253904 0.24189326 0.79526621 1.1711356e-38
-0.34001961 0.24164337 0.79444462 1.1987943e-38
-0.33781013 0.24161193 0.79434127 1.1803552e-38
-0.335657 0.24162064 0.79436994 1.1895747e-38
-0.33345199 0.2415919 0.7942754 1.1803552e-38
-0.33108816 0.24144693 0.7937988 1.1895747e-38
-0.32843673 0.24108897 0.79262197 1.1803552e-38
-0.32591209 0.24081995 0.7917375 1.1803552e-38
-0.32376283 0.24082656 0.79175925 1.1895747e-38
-0.32117048 0.24050146 0.79069042 1.1711356e-38
-0.31916705 0.24061595 0.79106683 1.1803196e-38
-0.31690988 0.24053942 0.79081517 1.1895391e-38
-0.31547749 0.24109213 0.79263234 1.1895391e-38
-0.31331509 0.24109073 0.79262775 1.1803196e-38
-0.31123891 0.24115613 0.79284275 1.1895391e-38
-0.30865562 0.24082674 0.79175985 1.1987587e-38
-0.30592817 0.24037948 0.7902894 1.1987587e-38
-0.30308041 0.23983066 0.78848505 1.2079783e-38
-0.30070144 0.23964763 0.78788328 1.1803196e-38
-0.29868454 0.23975258 0.78822833 1.2079783e-38
-0.29654068 0.23975641 0.78824091 1.1987943e-38
-0.29454455 0.23988059 0.7886492 1.1987943e-38
-0.29244301 0.23992011 0.78877914 1.1987587e-38
-0.29043132 0.24003449 0.78915519 1.1895747e-38
-0.28773406 0.23957975 0.78766012 1.226453e-38
-0.28518331 0.23924108 0.78654671 1.1987943e-38
-0.28259322 0.23886402 0.78530705 1.1895391e-38
-0.28079301 0.23915395 0.78626025 1.2171978e-38
-0.27879292 0.23927678 0.78666407 1.2172334e-38
-0.27660462 0.23923877 0.78653908 1.2080139e-38
-0.27409488 0.23891993 0.78549087 1.1987943e-38
-0.2716803 0.23867969 0.78470105 1.1987943e-38
-0.26923272 0.2384064 0.78380257 1.2080139e-38
-0.26655522 0.23792355 0.78221506 1.2080139e-38
-0.26432189 0.23783255 0.7819159 1.2356726e-38
-0.26219693 0.23783837 0.78193504 1.2171978e-38
-0.26029369 0.23804706 0.78262115 1.235637e-38
-0.25822189 0.23810375 0.78280753 1.2171978e-38
-0.25660044 0.23858012 0.7843737 1.2264174e-38
-0.25459912 0.23870836 0.78479528 1.2079783e-38
-0.25262457 0.23886406 0.78530717 1.2264174e-38
-0.25024873 0.23863974 0.78456968 1.2264174e-38
-0.24799967 0.23853351 0.78422046 1.2079783e-38
-0.24563323 0.23831156 0.78349072 1.2171978e-38
-0.24298684 0.23781171 0.78184742 1.2264174e-38
-0.24030915 0.23727213 0.7800734 1.2080139e-38
-0.2379353 0.23702557 0.77926284 1.2172334e-38
-0.23550503 0.23671788 0.77825123 1.226453e-38
-0.23328325 0.23661605 0.77791643 1.2172334e-38
-0.23143226 0.2368919 0.77882332 1.2080139e-38
-0.22924894 0.23682952 0.77861828 1.2172334e-38
-0.22703807 0.23673727 0.77831495 1.226453e-38
-0.22410482 0.23588291 0.77550614 1.2172334e-38
-0.22206844 0.2359653 0.77577698 1.2356726e-38
-0.21946996 0.23544624 0.7740705 1.2448921e-38
-0.21748811 0.23558505 0.77452683 1.226453e-38
-0.21543649 0.23565024 0.77474117 1.2264174e-38
-0.21331884 0.2356438 0.77472001 1.2448565e-38
-0.21122797 0.23566712 0.77479666 1.235637e-38
-0.20899522 0.235531 0.77434915 1.235637e-38
-0.20662031 0.23523027 0.77336043 1.2264174e-38
-0.20403334 0.23467943 0.77154946 1.2079783e-38
-0.20159346 0.23428804 0.77026272 1.235637e-38
-0.19947408 0.23426484 0.77018642 1.235637e-38
-0.19758396 0.23451324 0.77100307 1.2448565e-38
-0.19551736 0.23455526 0.77114123 1.2079423e-38
-0.19347416 0.23462656 0.77137566 1.2263814e-38
-0.19093557 0.2340921 0.76961851 1.2264174e-38
-0.18885107 0.23410866 0.76967293 1.2448565e-38
-0.18689549 0.23428719 0.77025992 1.2079783e-38
-0.18493553 0.23446423 0.77084196 1.2540761e-38
-0.18283013 0.23445882 0.77082419 1.2264174e-38
-0.18052021 0.23418799 0.76993376 1.2540761e-38
-0.17788735 0.23348691 0.76762885 1.2171978e-38
-0.17565669 0.23330331 0.76702523 1.235637e-38
-0.17337678 0.23304909 0.76618946 1.2540401e-38
-0.1715924 0.23346289 0.76754987 1.2448205e-38
-0.1696716 0.23369899 0.7683261 1.2448205e-38
-0.16745523 0.23352879 0.76776654 1.2263814e-38
-0.1651005 0.2331589 0.76655048 1.2540761e-38
-0.16253941 0.23248437 0.76433283 1.2264174e-38
-0.16052689 0.23258713 0.76467067 1.2540761e-38
-0.15853243 0.23271911 0.76510459 1.2448565e-38
-0.1565477 0.2328691 0.7655977 1.2356372e-38
-0.15450783 0.23293999 0.76583076 1.2264177e-38
-0.15231669 0.23278166 0.76531023 1.2264177e-38
-0.15028207 0.23286144 0.76557255 1.2448568e-38
-0.14814049 0.23277541 0.76528966 1.2540761e-38
-0.14606957 0.23279954 0.765369 1.235637e-38
-0.14366281 0.23228136 0.76366538 1.2632956e-38
-0.14131556 0.23184559 0.76223272 1.2540761e-38
-0.1393196 0.23198172 0.76268029 1.2264174e-38
-0.13723268 0.23196824 0.76263595 1.2448565e-38
-0.13492998 0.23158401 0.76137275 1.2448565e-38
-0.13253835 0.23103273 0.75956029 1.2264174e-38
-0.13043752 0.23097892 0.75938338 1.2171978e-38
-0.12847608 0.23117417 0.76002532 1.235637e-38
-0.12645344 0.23126392 0.76032037 1.2448565e-38
-0.12407735 0.23069946 0.75846463 1.235637e-38
-0.1218438 0.23038541 0.7574321 1.2540761e-38
-0.11975314 0.23033538 0.75726765 1.2540761e-38
-0.11772776 0.23041132 0.75751734 1.2633312e-38
-0.1157683 0.23062131 0.75820768 1.2541117e-38
-0.11363341 0.2304831 0.75775331 1.2356726e-38
-0.11169033 0.23073603 0.75858486 1.235637e-38
-0.10955462 0.23059306 0.75811481 1.2540761e-38
-0.10763364 0.23090525 0.75914121 1.2540761e-38
-0.10536061 0.2304596 0.75767606 1.2448568e-38
-0.10321892 0.23028919 0.75711578 1.2356372e-38
-0.10092729 0.22977044 0.75541031 1.2632956e-38
-0.099003941 0.23008601 0.75644779 1.2725152e-38
-0.096937418 0.23007517 0.75641215 1.2541117e-38
-0.09501525 0.23041391 0.75752586 1.2633312e-38
-0.092724927 0.22985509 0.75568861 1.2633312e-38
-0.090521932 0.22949229 0.75449586 1.2632956e-38
-0.088329151 0.2291391 0.7533347 1.2632959e-38
-0.086392477 0.2294493 0.75435454 1.2632959e-38
-0.084369145 0.22953886 0.75464892 1.2356372e-38
-0.082076356 0.22888146 0.75248766 1.2632959e-38
-0.079886213 0.22848397 0.75118083 1.2817351e-38
-0.077903569 0.22867462 0.75180763 1.2540764e-38
-0.075836495 0.22862107 0.75163156 1.2632959e-38
-0.073716365 0.22840014 0.75090522 1.2540761e-38
-0.071542725 0.22799607 0.74957675 1.2817348e-38
-0.069650918 0.22849283 0.75120991 1.2817348e-38
-0.067646645 0.22863953 0.75169224 1.2725152e-38
-0.065598138 0.22864121 0.75169778 1.2725155e-38
-0.063525267 0.22855535 0.75141549 1.2817351e-38
-0.061338194 0.22803919 0.74971855 1.3001742e-38
-0.059282716 0.22799356 0.74956852 1.2725155e-38
-0.057309143 0.22827092 0.75048035 1.2909546e-38
-0.055267449 0.22828743 0.75053465 1.3093935e-38
-0.053170096 0.22806644 0.74980813 1.3001739e-38
-0.051025219 0.22761582 0.7483266 1.3001742e-38
-0.049031425 0.22782966 0.7490297 1.2909546e-38
-0.046961926 0.22769506 0.74858713 1.3093937e-38
-0.04487868 0.22747855 0.74787533 1.3093937e-38
-0.042806987 0.22730276 0.74729741 1.3001739e-38
-0.040763196 0.22726497 0.74717313 1.3001739e-38
-0.038728628 0.22727732 0.74721378 1.3186133e-38
-0.036676291 0.22718099 0.74689704 1.3001023e-38
-0.0346472 0.22722581 0.74704438 1.3185417e-38
-0.032577589 0.22699386 0.7462818 1.3277613e-38
-0.03049089 0.22660401 0.74500012 1.309394e-38
-0.028389411 0.22604087 0.74314868 1.3186136e-38
-0.026347077 0.22589828 0.74267989 1.3093937e-38
-0.024348766 0.22614083 0.74347734 1.3001742e-38
-0.022306638 0.22598355 0.74296021 1.3278332e-38
-0.020248407 0.22561538 0.74174982 1.309394e-38
-0.01820316 0.22532627 0.74079931 1.3369805e-38
-0.016194956 0.22548077 0.74130726 1.327761e-38
-0.014185133 0.22565356 0.74187535 1.3278332e-38
-0.01216237 0.22564374 0.74184304 1.3186136e-38
-0.010126917 0.22534758 0.7408694 1.3186136e-38
-0.0081092073 0.22539714 0.7410323 1.309394e-38
-0.0060824039 0.22514291 0.74019653 1.3369808e-38
-0.0040589371 0.22482114 0.7391386 1.3186136e-38
-0.0020388127 0.2242326 0.73720372 1.3370527e-38
-2.9292089e-05 0.22406979 0.73666841 1.35542e-38
0.0019789769 0.22409569 0.73675358 1.3093219e-38
0.0039958814 0.22458084 0.7383486 1.327761e-38
0.0060132244 0.22475737 0.73892897 1.3369808e-38
0.0080322372 0.22489208 0.73937184 1.3369808e-38
0.010030517 0.22450869 0.73811138 1.3462007e-38
0.012036908 0.22440462 0.73776925 1.3277615e-38
0.014031297 0.2241386 0.73689467 1.3554202e-38
0.016023295 0.2239058 0.73612928 1.35542e-38
0.018010488 0.22366516 0.73533815 1.3278332e-38
0.020005632 0.22356158 0.73499763 1.3370527e-38
0.022011394 0.2235847 0.73507363 1.3462001e-38
0.023990959 0.22336006 0.73433506 1.3646395e-38
0.026003921 0.22345701 0.73465383 1.3737512e-38
0.02797161 0.22317889 0.73373944 1.3645316e-38
0.03001475 0.22349969 0.73479414 1.3645316e-38
0.031979512 0.22323325 0.73391819 1.3553121e-38
0.034013357 0.22345205 0.7346375 1.3553121e-38
0.035986979 0.22327282 0.73404825 1.4014099e-38
0.037972253 0.22318099 0.73374635 1.4106294e-38
0.039980199 0.22322495 0.73389089 1.4014099e-38
0.041972034 0.22317903 0.73373991 1.3921903e-38
0.04395989 0.2231171 0.7335363 1.3921903e-38
0.045943405 0.22303951 0.7332812 1.4291765e-38
0.0479405 0.22303154 0.73325497 1.4199569e-38
0.04995833 0.22311682 0.73353535 1.4844938e-38
0.051877808 0.22277318 0.7324056 1.4752743e-38
0.053822279 0.22255836 0.73169935 1.4568351e-38
0.055825993 0.22259513 0.73182023 1.5029327e-38
0.057730477 0.22224735 0.73067683 1.5490305e-38
0.059891403 0.22287707 0.73274714 1.5766892e-38
0.061871126 0.22281358 0.7325384 1.6135674e-38
0.06399332 0.2232511 0.73397684 1.6688848e-38
0.06582953 0.22269464 0.7321474 1.6228226e-38
0.067926981 0.22302866 0.73324555 1.6689204e-38
0.069822811 0.22270052 0.73216671 1.6689204e-38
0.071772896 0.22255887 0.73170102 1.6965435e-38
0.073705018 0.22237067 0.73108226 1.67814e-38
0.075749524 0.22252251 0.73158151 1.6873239e-38
0.077778757 0.22262287 0.73191142 1.7149826e-38
0.079720885 0.22247511 0.73142564 1.7425337e-38
0.081729427 0.22251537 0.73155802 1.7425337e-38
0.083774216 0.22265008 0.73200089 1.7333141e-38
0.085911475 0.22301854 0.73321229 1.7425337e-38
0.087971754 0.22317497 0.73372656 1.7056554e-38
0.089964829 0.22315773 0.73366988 1.714875e-38
0.091910385 0.22302596 0.73323667 1.7333141e-38
0.093800552 0.22276825 0.73238939 1.714875e-38
0.095699862 0.22254251 0.73164725 1.7240586e-38
0.097628295 0.22239237 0.73115361 1.714875e-38
0.099735133 0.22264647 0.73198903 1.7240946e-38
0.1016852 0.2225475 0.73166364 1.6873242e-38
0.103703 0.22259772 0.73182875 1.7149829e-38
0.10573748 0.22268116 0.73210311 1.7426416e-38
0.10757942 0.22236358 0.73105896 1.7425337e-38
0.10930447 0.22182029 0.72927284 1.7333141e-38
0.11108455 0.22140615 0.72791123 1.7149829e-38
0.1131213 0.2215091 0.72824973 1.6873961e-38
0.11518764 0.22166547 0.72876382 1.7057633e-38
0.11714414 0.22160871 0.7285772 1.7425337e-38
0.11901342 0.22139162 0.72786349 1.7425337e-38
0.1205778 0.22062378 0.72533906 1.7701924e-38
0.12260057 0.22070587 0.72560894 1.7701927e-38
0.12464955 0.22083181 0.72602302 1.7794119e-38
0.12677419 0.22108576 0.7268579 1.7887394e-38
0.12842992 0.22052673 0.72501999 1.7887394e-38
0.13035664 0.22044291 0.72474444 1.797959e-38
0.13240246 0.22056 0.72512937 1.8071785e-38
0.13423315 0.22032049 0.72434199 1.8440568e-38
0.13615479 0.22023511 0.72406125 1.8348372e-38
0.13861324 0.22100805 0.72660244 1.8624959e-38
0.14063933 0.22107956 0.72683752 1.8717158e-38
0.14225256 0.2205091 0.72496206 1.8901549e-38
0.14432871 0.22066201 0.72546476 1.8901549e-38
0.14635853 0.22074093 0.72572422 1.9178136e-38
0.14853689 0.22103876 0.72670341 1.8901549e-38
0.15047154 0.22097087 0.72648019 1.9178136e-38
0.15246399 0.22098853 0.72653824 1.9361448e-38
0.15449308 0.22105816 0.72676718 1.9453641e-38
0.15620787 0.22068201 0.72553051 1.9545836e-38
0.15826681 0.22079538 0.72590321 1.9546915e-38
0.16009203 0.2205839 0.72520798 1.9271047e-38
0.16207007 0.2205856 0.72521353 1.9639474e-38
0.16384685 0.22031662 0.72432923 1.9639114e-38
0.16552116 0.21991789 0.72301835 1.9730952e-38
0.16798107 0.22056006 0.7251296 1.9823505e-38
0.16960508 0.2201025 0.7236253 1.9823502e-38
0.17184839 0.22044991 0.72476745 2.0007894e-38
0.17360805 0.22017606 0.72386712 2.0007894e-38
0.17582779 0.22048528 0.72488374 2.0283402e-38
0.17770141 0.22035843 0.72446668 2.0007894e-38
0.17948991 0.22012998 0.7237156 2.0192285e-38
0.18224433 0.22107822 0.72683311 2.0007894e-38
0.18765789 0.22519717 0.74037486 0
-0.41863033 0.18267201 0.59523177 2.1230092e-39
-0.42299378 0.18529418 0.60377604 0
-0.42134798 0.18529418 0.60377604 2.1230092e-39
-0.42514089 0.18769531 0.61160004 0
-0.43125823 0.1911456 0.62284273 0
-0.43922728 0.19544715 0.63685918 0
-0.45076373 0.20137654 0.65617996 0
-0.5754174 0.2721855 0.88690901 3.6903363e-39
-0.57231969 0.27186245 0.88585633 2.3995961e-39
-0.56736845 0.27065241 0.88191354 1.938618e-39
-0.56616634 0.27122816 0.8837896 2.1226463e-39
-0.56312972 0.27092627 0.88280582 2.2148419e-39
-0.56489521 0.27294198 0.88937402 2.2148391e-39
-0.56247091 0.27294198 0.88937402 2.491426e-39
-0.55984372 0.27284309 0.8890518 2.3981542e-39
-0.55798131 0.27311769 0.88994658 2.5836244e-39
-0.55289161 0.27180812 0.8856793 2.7669339e-39
-0.55250919 0.27281135 0.88894832 2.6747411e-39
-0.54997218 0.27275488 0.88876432 2.5825454e-39
-0.54715818 0.27255994 0.88812912 2.7669367e-39
-0.5441817 0.27228194 0.8872233 2.7669339e-39
-0.44119021 0.24958964 0.813281 1.1065631e-38
-0.43603027 0.24917464 0.81192875 1.1341855e-38
-0.4319928 0.2481268 0.80851442 1.1802833e-38
-0.42916471 0.24776644 0.80734015 1.1618442e-38
-0.42736945 0.24800171 0.80810678 1.0973072e-38
-0.42522579 0.24803619 0.80821913 1.1249659e-38
-0.42343032 0.24827518 0.80899787 1.1158182e-38
-0.42058617 0.24789858 0.80777073 1.1065987e-38
-0.4177033 0.24749507 0.80645591 1.1341855e-38
-0.41498098 0.24718291 0.80543876 1.1341855e-38
-0.41323712 0.24745336 0.80632001 1.143405e-38
-0.4123387 0.24823569 0.80886918 1.1893952e-38
-0.40945968 0.24782762 0.80753952 1.1709561e-38
-0.4064236 0.24731959 0.80588412 1.1341858e-38
-0.40306836 0.24661076 0.80357444 1.1249662e-38
-0.40157434 0.24703917 0.80497038 1.1065271e-38
-0.39938012 0.24703917 0.80497038 1.1526249e-38
-0.39681727 0.2468099 0.8042233 1.1250378e-38
