# .PCD v0.7 - Point Cloud Data file format
VERSION 0.7
FIELDS x y z rgb
SIZE 4 4 4 4
TYPE F F F F
COUNT 1 1 1 1
WIDTH 1010
HEIGHT 1
VIEWPOINT 0 0 0 1 0 0 0
POINTS 1010
DATA ascii
0.010428355 0.14765058 0.76738685 1.890082e-38
0.012537166 0.14785151 0.76843119 7.5607577e-39
0.014617972 0.14771192 0.76770568 1.816361e-38
0.016728289 0.14786814 0.76851761 1.2263087e-38
0.018892752 0.14841494 0.7713595 1.7149455e-38
0.021028046 0.14864604 0.7725606 6.8231773e-39
0.02300979 0.14784844 0.76841521 1.6411837e-38
0.025087684 0.14775018 0.76790458 1.7980205e-38
0.027094692 0.14728175 0.76546991 1.8347192e-38
0.029182248 0.14728683 0.76549637 1.8162801e-38
0.031267691 0.14728129 0.76546752 1.8715263e-38
0.033507679 0.14795884 0.76898903 1.8807106e-38
0.035693556 0.14833178 0.77092725 1.8622365e-38
0.037762586 0.14820462 0.77026641 1.8067761e-38
0.039791901 0.14794323 0.76890785 1.7421656e-38
0.041864797 0.14786191 0.76848525 1.6960312e-38
0.044084214 0.14828117 0.77066427 1.6682279e-38
0.046200175 0.14833015 0.77091885 1.6314938e-38
0.048250087 0.14817204 0.77009702 1.7789351e-38
0.050290987 0.14800058 0.76920593 1.7697873e-38
0.052331202 0.14784092 0.76837611 1.8248886e-38
0.054463953 0.1479449 0.76891655 1.7049254e-38
0.05652735 0.14785977 0.7684741 1.575563e-38
0.058721732 0.1481111 0.76978034 1.6676154e-38
0.060959216 0.14845005 0.77154195 1.5476532e-38
0.063083529 0.14849998 0.77180147 1.5754562e-38
0.065205485 0.14854133 0.77201635 1.5848921e-38
0.067209192 0.14831914 0.77086157 1.7787908e-38
0.069253989 0.14819834 0.77023375 1.8250329e-38
0.071282916 0.14805169 0.76947159 1.8437236e-38
0.073346481 0.14798331 0.76911622 1.8714539e-38
0.075570427 0.14823332 0.7704156 1.8437946e-38
0.07831125 0.14945626 0.77677161 1.779474e-38
0.10951966 0.18861803 0.9803077 0
0.11283249 0.18969512 0.98590571 0
0.11603678 0.19054389 0.99031699 0
0.11908808 0.19110852 0.99325156 1.1984693e-38
0.1221282 0.19163054 0.99596465 1.124858e-38
0.1629339 0.19172831 0.99647278 1.078724e-38
0.16543424 0.19147843 0.99517411 1.1524805e-38
0.16810407 0.19142963 0.99492049 1.1985784e-38
0.17127281 0.19194151 0.99758089 1.2077981e-38
-0.3761479 0.16518177 0.84650946 1.1718244e-38
-0.37006372 0.16351302 0.83795762 7.0267187e-39
-0.36672458 0.16304398 0.83555388 5.9221788e-39
-0.36387765 0.16278926 0.83424854 6.107649e-39
-0.36146945 0.16272885 0.83393896 5.003821e-39
-0.35811341 0.16223828 0.83142495 4.72796e-39
-0.35545942 0.16206154 0.8305192 4.2676979e-39
-0.35330978 0.16211395 0.83078778 4.0843969e-39
-0.35163847 0.16238792 0.83219182 4.5460911e-39
-0.34941241 0.16240762 0.83229274 5.7403169e-39
-0.34708542 0.16238034 0.83215296 6.2023642e-39
-0.34509283 0.1625102 0.83281845 6.6615473e-39
-0.34336469 0.16276711 0.83413506 7.12288e-39
-0.34213445 0.16326505 0.83668685 7.3987522e-39
-0.34040263 0.16352874 0.83803815 6.5707852e-39
-0.33883739 0.16387652 0.83982044 6.5697062e-39
-0.33668372 0.16394253 0.8401587 7.0299669e-39
-0.33441094 0.16395104 0.84020233 7.2136421e-39
-0.3340894 0.16492289 0.84518278 6.2906096e-39
-0.33415976 0.16610305 0.85123074 5.0917119e-39
-0.33587977 0.16812545 0.86159497 5.0826903e-39
-0.33675465 0.16975032 0.86992198 6.5527561e-39
-0.36660647 0.19154167 0.98159647 8.2079432e-39
-0.36615404 0.1927118 0.98759305 1.189612e-38
-0.36527467 0.1936729 0.99251837 1.4200288e-38
-0.36316693 0.19399217 0.99415451 1.4753812e-38
-0.36013299 0.19381778 0.99326086 1.5860159e-38
-0.34421441 0.18807858 0.96384913 1.788811e-38
-0.33891013 0.18660465 0.95629561 1.7979587e-38
-0.33552513 0.18617278 0.95408243 1.8901543e-38
-0.33330423 0.18638515 0.95517075 2.0560342e-38
-0.33195472 0.18709201 0.95879316 2.1298986e-38
-0.33112344 0.18810445 0.96398169 2.2405333e-38
-0.32892048 0.18834764 0.96522796 2.2958507e-38
-0.32619995 0.18829601 0.96496332 2.3050703e-38
-0.32272661 0.18780543 0.96244925 2.268192e-38
-0.31977615 0.18761358 0.96146607 2.2220942e-38
-0.3162089 0.18705371 0.95859694 2.1759964e-38
-0.31391531 0.18724422 0.95957327 2.1390825e-38
-0.31163728 0.18744729 0.96061397 2.0101158e-38
-0.30974424 0.18788734 0.96286905 1.9179925e-38
-0.30692869 0.18777055 0.9622705 1.7707657e-38
-0.30371356 0.18740515 0.96039802 1.0335927e-38
-0.29970437 0.1865392 0.95596021 1.0154769e-38
-0.29597625 0.18583454 0.95234901 9.5108313e-39
-0.29210934 0.18502948 0.94822329 8.8683345e-39
-0.28863141 0.18445863 0.9452979 8.500624e-39
-0.28586993 0.18433949 0.94468737 8.0403619e-39
-0.28274962 0.1839847 0.94286913 8.0410822e-39
-0.27950564 0.18354219 0.94060141 8.1332778e-39
-0.2765516 0.18328366 0.93927646 7.8570483e-39
-0.27418756 0.18341494 0.93994927 8.0414395e-39
-0.27201363 0.18367709 0.9412927 8.2247532e-39
-0.26890773 0.18330893 0.93940598 8.5921008e-39
-0.26656455 0.1834586 0.94017303 9.234952e-39
-0.2640126 0.18346612 0.94021159 1.0429211e-38
-0.2610873 0.1832118 0.93890822 1.7798777e-38
-0.2586439 0.18329394 0.93932915 1.7889902e-38
-0.25602704 0.18325357 0.93912232 1.7429642e-38
-0.25314137 0.18301804 0.93791527 9.4128987e-39
-0.25042856 0.18290395 0.9373306 8.6807063e-39
-0.24813104 0.18309395 0.93830431 8.4984632e-39
-0.24615476 0.18352742 0.94052571 8.040006e-39
-0.24393973 0.18379013 0.94187206 7.763775e-39
-0.24193634 0.1842196 0.9440729 6.8403866e-39
-0.23995386 0.18467437 0.9464035 7.758387e-39
-0.23786269 0.18505448 0.94835144 8.9533387e-39
-0.23551542 0.18524151 0.94930989 1.1625597e-38
-0.23321891 0.18547305 0.95049649 1.5493887e-38
-0.23103286 0.18579865 0.95216507 1.7426766e-38
-0.22860044 0.18593124 0.95284456 1.7335288e-38
-0.22662967 0.18644668 0.95548612 1.5124022e-38
-0.22431812 0.18669048 0.95673549 1.1436912e-38
-0.22226344 0.18715633 0.95912284 1.0701139e-38
-0.21991283 0.1873811 0.96027476 1.0427055e-38
-0.19243537 0.16796692 0.86078256 1.576976e-38
-0.18891369 0.16692837 0.85546029 8.7639434e-39
-0.1862241 0.1666083 0.85382009 9.5032811e-39
-0.18374689 0.16647257 0.85312444 9.5043573e-39
-0.18155049 0.166591 0.85373139 8.6742435e-39
-0.17917924 0.16655001 0.85352129 7.8434066e-39
-0.17669164 0.16639833 0.85274404 8.1189271e-39
-0.1740604 0.16610557 0.85124367 9.7777296e-39
-0.17176092 0.16612576 0.85134715 1.4017655e-38
-0.16937198 0.16605879 0.85100394 1.4109499e-38
-0.16701211 0.16601886 0.85079932 1.558391e-38
-0.16464086 0.16596633 0.85053015 1.5399874e-38
-0.16231686 0.16596061 0.85050082 1.2911659e-38
-0.15999573 0.16595772 0.85048598 1.2912359e-38
-0.15760538 0.16588186 0.85009724 1.2727268e-38
-0.15520585 0.16579394 0.84964669 1.4754161e-38
-0.15299679 0.16590992 0.85024101 1.6136393e-38
-0.15057512 0.16579534 0.84965384 1.4753811e-38
-0.14842337 0.16597906 0.85059536 1.0882296e-38
-0.14597979 0.16583705 0.84986758 1.2081547e-38
-0.14363195 0.16580099 0.84968281 1.2358128e-38
-0.14113072 0.16558379 0.84856969 1.3925811e-38
-0.13885923 0.16563337 0.84882379 1.4385719e-38
-0.13652593 0.16560966 0.84870231 1.4201328e-38
-0.134074 0.16543879 0.8478266 1.4569758e-38
-0.13167703 0.16533089 0.84727365 1.539953e-38
-0.1291945 0.1651098 0.84614062 9.316027e-39
-0.1269781 0.16522697 0.84674108 9.6865863e-39
-0.12478191 0.16537526 0.84750104 9.7795008e-39
-0.12267663 0.1656519 0.84891874 9.1337769e-39
-0.12040111 0.16570488 0.84919024 9.6880255e-39
-0.1179801 0.16555578 0.84842616 9.5036328e-39
-0.11562513 0.16549525 0.84811592 9.7805728e-39
-0.11322162 0.16536134 0.84742975 1.0057157e-38
-0.11098683 0.16547342 0.84800404 9.9642424e-39
-0.10868245 0.16548428 0.84805977 1.0794003e-38
-0.10632186 0.16540819 0.84766984 1.0240829e-38
-0.1039752 0.16535084 0.84737593 9.1337685e-39
-0.10184684 0.16564596 0.84888834 8.4869656e-39
-0.10029782 0.16691896 0.85541213 8.7624875e-39
-0.099209152 0.16903692 0.86626607 1.0419879e-38
-0.032099005 0.19125493 0.98012698 1.7149832e-38
-0.028822735 0.18732551 0.95998979 1.7149829e-38
-0.025994455 0.18581365 0.95224196 1.8071785e-38
-0.023293179 0.18497492 0.94794375 1.8900823e-38
-0.020724226 0.18510881 0.94862986 1.8993019e-38
-0.018186115 0.18559563 0.95112467 1.9176691e-38
-0.015520668 0.18472877 0.94668227 1.9176694e-38
-0.0085501606 0.15246259 0.78132731 1.6963592e-38
-0.006306469 0.14975742 0.76746404 1.7517449e-38
-0.0041869115 0.14877762 0.76244289 1.7333394e-38
-0.0021162925 0.14931937 0.76521921 1.724192e-38
-3.0525811e-05 0.14980255 0.76769537 1.751817e-38
0.0020747795 0.15072449 0.77241999 6.3611089e-39
0.0041709552 0.15038852 0.77069831 5.2555026e-39
0.0062292567 0.14936945 0.76547587 1.1432971e-38
0.0083159786 0.14937228 0.76549035 1.0972719e-38
0.010401568 0.14935772 0.76541573 1.6688125e-38
0.01251924 0.14973173 0.76733243 1.3554553e-38
0.014593433 0.14955308 0.76641691 1.6597006e-38
0.01669563 0.14967021 0.76701719 1.6873591e-38
0.018844662 0.15013443 0.76939613 7.3767182e-39
0.020923842 0.15000486 0.76873219 6.730983e-39
0.022904009 0.1492537 0.76488262 1.6134899e-38
0.02494259 0.14897676 0.76346338 1.8164247e-38
0.027056247 0.14915636 0.76438379 1.7886925e-38
0.029145969 0.14918776 0.76454473 1.7517785e-38
0.031258058 0.14932181 0.76523167 1.8439042e-38
0.033371858 0.14944676 0.765872 1.8437266e-38
0.035548083 0.14982009 0.76778525 1.852911e-38
0.037643749 0.14983125 0.76784241 1.7883367e-38
0.039733663 0.14981955 0.76778251 1.6589378e-38
0.041843627 0.14988086 0.76809663 1.7602796e-38
0.044016607 0.15015127 0.76948243 1.7878661e-38
0.046094321 0.15008689 0.76915252 1.6588994e-38
0.048089825 0.14977206 0.76753914 1.8432906e-38
0.050137006 0.14963774 0.76685077 1.7418036e-38
0.052219685 0.14961588 0.76673871 1.7325479e-38
0.054402884 0.1498726 0.76805437 1.6033295e-38
0.056481395 0.14983259 0.76784933 1.5292496e-38
0.058539454 0.14974312 0.76739085 1.6676515e-38
0.060687359 0.14988174 0.76810116 1.2525557e-38
0.06293837 0.15025724 0.77002555 1.6770158e-38
0.065056033 0.15030044 0.77024692 1.5203197e-38
0.067065947 0.15009978 0.76921856 1.7326578e-38
0.068999648 0.1497459 0.76740503 1.8250695e-38
0.071087308 0.14973713 0.76736009 1.8436881e-38
0.073165856 0.14971021 0.76722217 1.8806027e-38
0.07532154 0.14983825 0.76787829 1.8531232e-38
0.07803721 0.15104322 0.77405345 1.8439755e-38
0.11156239 0.19021699 0.97480786 0
0.11478243 0.19115438 0.97961169 0
0.11769452 0.19154796 0.98162866 1.3091768e-38
0.12063579 0.19197045 0.98379385 1.2816988e-38
0.12332355 0.19197997 0.98384261 1.2448202e-38
0.12640743 0.19259256 0.98698199 1.2172334e-38
0.12933284 0.19294323 0.98877901 1.1987943e-38
0.13255791 0.19371751 0.99274701 1.1711e-38
0.13532573 0.19380593 0.99320018 1.2448565e-38
0.15708956 0.19393604 0.99386686 8.4827112e-39
0.15903062 0.19300388 0.98908985 9.8656457e-39
0.16155699 0.19280133 0.98805183 1.1524451e-38
0.16397487 0.19247808 0.98639524 1.2077625e-38
0.16686964 0.19271599 0.98761451 1.2354212e-38
0.16987592 0.19307311 0.98944461 1.1985429e-38
0.17309496 0.19365707 0.9924373 1.1893952e-38
0.17597015 0.19384432 0.99339688 1.1893952e-38
0.17855446 0.1937103 0.99271005 1.1618088e-38
-0.37735245 0.16802557 0.84922028 1.0239513e-38
-0.37101206 0.16622204 0.840105 7.5791764e-39
-0.36709949 0.16549057 0.83640808 5.5555543e-39
-0.3645592 0.16537246 0.83581114 5.6491932e-39
-0.36162108 0.16507126 0.83428884 5.0052686e-39
-0.3577055 0.16431724 0.83047789 4.4517374e-39
-0.35428938 0.1637845 0.82778543 4.5457309e-39
-0.352447 0.16397713 0.82875901 5.1893025e-39
-0.35096571 0.16434133 0.83059967 5.096388e-39
-0.34869739 0.16433933 0.83058959 5.5577235e-39
-0.34630188 0.16427697 0.8302744 6.2030929e-39
-0.34453854 0.16451566 0.83148074 6.8484595e-39
-0.34309536 0.16491137 0.83348078 6.8477364e-39
-0.34188008 0.16542265 0.83606482 7.3079957e-39
-0.34013325 0.16568187 0.83737493 6.9402866e-39
-0.33802357 0.16576666 0.83780342 7.3994683e-39
-0.33600491 0.1658975 0.8384648 6.9384901e-39
-0.33439517 0.16623345 0.84016269 6.7526639e-39
-0.33431178 0.16733804 0.84574538 5.4615734e-39
-0.33423394 0.16846074 0.85141969 4.3534308e-39
-0.33499944 0.1700272 0.85933673 5.4503938e-39
-0.33603287 0.17175266 0.86805737 0
-0.36909768 0.19412033 0.98110616 0
-0.36839643 0.19516562 0.9863891 8.4852518e-39
-0.36738434 0.19606039 0.99091142 1.7979954e-38
-0.36614519 0.19684635 0.99488372 1.7887757e-38
-0.36376134 0.19702402 0.99578172 1.7703716e-38
-0.36128223 0.19715238 0.99643046 1.7796268e-38
-0.35741723 0.19652069 0.99323779 1.8072499e-38
-0.3412948 0.19054268 0.96302432 1.7980306e-38
-0.33604068 0.18906352 0.95554847 1.7887391e-38
-0.33329791 0.18898521 0.95515269 1.9639108e-38
-0.33132178 0.18934381 0.95696503 2.1022043e-38
-0.32967511 0.18989784 0.9597652 2.1483377e-38
-0.32687628 0.1897918 0.95922923 2.2404257e-38
-0.32433841 0.18983677 0.9594565 2.2312061e-38
-0.32165852 0.18979867 0.95926398 2.1943279e-38
-0.31985399 0.19028071 0.9617002 2.1943276e-38
-0.31704089 0.19016573 0.96111912 2.2036551e-38
-0.31489483 0.19045228 0.96256739 2.0284834e-38
-0.3125253 0.19060737 0.96335125 1.8994811e-38
-0.31064519 0.1910661 0.96566969 1.8257969e-38
-0.30784926 0.19096458 0.96515661 1.6232882e-38
-0.30395678 0.19017522 0.9611671 9.5058132e-39
-0.29907852 0.18875003 0.95396399 1.0062573e-38
-0.29513878 0.18789729 0.94965422 9.0516482e-39
-0.2913422 0.18712147 0.94573307 8.8683345e-39
-0.28821635 0.1867664 0.94393855 8.2243973e-39
-0.28527892 0.18652813 0.9427343 8.4087885e-39
-0.28245705 0.18636177 0.94189352 8.2243973e-39
-0.27903742 0.18579437 0.93902576 8.5013387e-39
-0.27575624 0.18530947 0.93657506 8.1332778e-39
-0.27336055 0.18541616 0.93711424 8.1332806e-39
-0.27123559 0.18571019 0.9386003 8.2247532e-39
-0.26891661 0.18587574 0.93943703 8.7764948e-39
-0.26609197 0.18569158 0.93850625 8.6846509e-39
-0.26328364 0.18551534 0.93761557 1.0522476e-38
-0.26129171 0.18591654 0.93964326 1.7798777e-38
-0.25903299 0.186134 0.94074225 1.7981382e-38
-0.25669938 0.18630143 0.94158846 1.7798064e-38
-0.25398114 0.18619028 0.94102675 9.4096645e-39
-0.25122458 0.18604846 0.94031 9.9667774e-39
-0.24870144 0.1860784 0.94046128 1.309858e-38
-0.24632241 0.18621789 0.94116628 1.6141777e-38
-0.24393144 0.18635119 0.94184005 1.6970461e-38
-0.24211338 0.18692967 0.94476372 1.7797345e-38
-0.24023111 0.18747048 0.94749701 1.7611876e-38
-0.23840745 0.18806927 0.95052338 1.7611876e-38
-0.23587427 0.18811536 0.95075631 1.7798775e-38
-0.23335961 0.18817741 0.95106989 1.7151977e-38
-0.23106815 0.18842287 0.9523105 1.7518961e-38
-0.22880262 0.18869528 0.95368731 1.7427485e-38
-0.22709347 0.18943807 0.95744151 1.7059777e-38
-0.22479187 0.18969819 0.95875609 1.6783195e-38
-0.22295432 0.19036062 0.96210414 1.6783909e-38
-0.22036761 0.19039159 0.96226066 1.6971161e-38
-0.19284061 0.17067192 0.8625952 1.6230736e-38
-0.18939662 0.1696929 0.85764718 8.8568579e-39
-0.18662809 0.16930218 0.85567236 9.5032811e-39
-0.18438719 0.16938625 0.85609728 8.9511863e-39
-0.18211506 0.16944343 0.8563863 9.043026e-39
-0.17975779 0.16942184 0.85627717 9.5022133e-39
-0.17714985 0.16916034 0.85495549 8.4869894e-39
-0.1745626 0.16891187 0.85369974 1.0329111e-38
-0.17216496 0.16884264 0.8533498 1.4386086e-38
-0.16987774 0.16888128 0.85354513 1.4477563e-38
-0.16746671 0.16879623 0.8531152 1.5768304e-38
-0.16524316 0.16890037 0.85364163 1.6044891e-38
-0.16286352 0.1688457 0.85336524 1.3832196e-38
-0.16050187 0.16880833 0.85317641 1.4015152e-38
-0.1580269 0.16864894 0.85237086 1.4477212e-38
-0.15553568 0.16846721 0.85145235 1.6044549e-38
-0.153365 0.1686324 0.85228729 1.6043844e-38
-0.15103281 0.16862236 0.85223651 1.447758e-38
-0.14867799 0.16858636 0.85205454 1.1251781e-38
-0.14625546 0.1684712 0.85147256 1.1436875e-38
-0.14384574 0.16836733 0.8509475 1.3096397e-38
-0.14161739 0.16847582 0.85149586 1.2450676e-38
-0.13941625 0.16862082 0.85222876 1.3279368e-38
-0.13708149 0.16860642 0.85215592 1.3832542e-38
-0.13465904 0.16848181 0.85152614 1.3648154e-38
-0.13224152 0.16835907 0.85090584 1.4478282e-38
-0.12982625 0.1682349 0.8502782 9.7770023e-39
-0.12757055 0.16831672 0.8506918 1.0515627e-38
-0.1252571 0.16832399 0.85072851 9.870979e-39
-0.1231181 0.16857037 0.85197371 8.8575459e-39
-0.12084315 0.1686365 0.85230798 9.7795022e-39
-0.11854898 0.16867788 0.85251713 9.2263271e-39
-0.1161674 0.16859408 0.85209352 9.5039859e-39
-0.11360515 0.16823927 0.85030031 8.5820296e-39
-0.11127944 0.16822727 0.85023969 8.6742225e-39
-0.10890675 0.16814226 0.84981 1.0057157e-38
-0.10664573 0.16822968 0.85025185 1.0333744e-38
-0.10425354 0.16810948 0.84964436 1.0425221e-38
-0.10205933 0.16831033 0.85065949 9.5947438e-39
-0.10035229 0.16934261 0.85587674 9.5011203e-39
-0.099304758 0.17156342 0.86710089 0
-0.059668593 0.19673876 0.99434 1.6965801e-38
-0.040613245 0.1963401 0.99232507 1.7334939e-38
-0.037800368 0.19578093 0.98949903 1.7426779e-38
-0.0350408 0.19543318 0.98774141 1.7334583e-38
-0.032038089 0.19355856 0.97826689 1.7703366e-38
-0.028826179 0.18996498 0.96010453 1.751933e-38
-0.025967706 0.18821542 0.95126206 1.8348369e-38
-0.023278037 0.18743695 0.94732755 1.9085214e-38
-0.020701243 0.18748647 0.94757783 1.9453278e-38
-0.018161664 0.18793522 0.94984585 1.9361082e-38
-0.015495833 0.18700956 0.94516748 1.9453278e-38
-0.0063590468 0.15311538 0.77386248 1.770184e-38
-0.004214766 0.15185954 0.7675153 1.8070605e-38
-0.0021251859 0.15204149 0.76843494 1.7702545e-38
-3.059936e-05 0.15226114 0.76954502 1.7242305e-38
0.0020734326 0.15273075 0.77191848 6.2692692e-39
0.0041813315 0.15286867 0.77261561 5.3484143e-39
0.006258633 0.15217027 0.76908576 1.5305188e-38
0.0083600692 0.15226191 0.76954895 1.4384311e-38
0.010440767 0.15201485 0.76830024 1.3461278e-38
0.012543653 0.15211941 0.76882875 1.7794473e-38
0.014628676 0.15200843 0.76826781 1.2908104e-38
0.016756857 0.15231752 0.76982999 1.6780318e-38
0.018922474 0.15286025 0.77257305 1.604311e-38
0.020992236 0.15259749 0.77124494 7.0075727e-39
0.023008656 0.1520301 0.7683773 1.4752321e-38
0.025043022 0.15166607 0.76653749 1.7979856e-38
0.02715452 0.15178928 0.76716018 1.7978763e-38
0.029228942 0.15170243 0.76672125 1.7885851e-38
0.031377397 0.15198578 0.76815331 1.8437618e-38
0.033501673 0.15212387 0.76885128 1.8437266e-38
0.035697363 0.15255089 0.7710095 1.8528739e-38
0.037770376 0.15243532 0.77042532 1.7238341e-38
0.039869942 0.15243344 0.77041584 1.4746524e-38
0.041976757 0.15245809 0.77054042 1.8249239e-38
0.044131424 0.15264589 0.77148962 1.4744366e-38
0.046235405 0.15264927 0.77150667 1.5113144e-38
0.048214175 0.15225695 0.76952386 1.7694259e-38
0.050287809 0.15218443 0.76915735 1.8061599e-38
0.052470256 0.15243383 0.77041781 1.5848904e-38
0.054753128 0.15294455 0.77299911 1.7321876e-38
0.056902923 0.15305947 0.7735799 1.5845314e-38
0.05898435 0.15298885 0.77322298 1.4554579e-38
0.061083324 0.15296705 0.77311277 1.3725545e-38
0.063237667 0.15308072 0.7736873 1.8520796e-38
0.065242097 0.15283588 0.77244985 1.5849644e-38
0.067270383 0.15266049 0.77156341 1.8157057e-38
0.069338456 0.15258329 0.77117318 1.9080458e-38
0.071421683 0.15254298 0.77096951 1.8988624e-38
0.073517814 0.15253176 0.77091277 1.889787e-38
0.075622097 0.1525376 0.77094233 1.8346492e-38
0.078235045 0.15354143 0.77601576 1.8348288e-38
0.1106376 0.19127534 0.96672726 0
0.11383605 0.19222656 0.97153479 0
0.11663143 0.19246936 0.97276193 1.4014449e-38
0.11953697 0.19287913 0.97483295 1.3277966e-38
0.12211791 0.19275871 0.97422433 1.346272e-38
0.12523195 0.19346696 0.97780395 1.3093937e-38
0.12809388 0.19376434 0.97930694 1.3093937e-38
0.13135442 0.19464025 0.98373383 1.3370524e-38
0.13429029 0.19500963 0.98560077 1.3093937e-38
0.13730614 0.19547838 0.98796988 1.2725155e-38
0.14020494 0.19576564 0.98942173 1.2817351e-38
0.14306322 0.19598658 0.99053842 1.2816632e-38
0.1457811 0.19601056 0.99065953 1.2724436e-38
0.14838985 0.19588961 0.99004823 1.290883e-38
0.15119733 0.19603063 0.99076098 1.2816634e-38
0.15355587 0.19559485 0.98855847 1.2816632e-38
0.15589647 0.19515164 0.98631847 1.2816632e-38
0.15785119 0.19424862 0.98175448 1.4015175e-38
0.16065109 0.19439842 0.98251158 1.4476153e-38
0.16308372 0.19410616 0.98103452 1.5120802e-38
0.16582042 0.19417942 0.98140478 1.5028607e-38
0.16870183 0.19441712 0.98260611 1.4937487e-38
0.17168292 0.19476047 0.98434144 1.475274e-38
0.17454468 0.19495995 0.98534966 1.4476153e-38
0.17713115 0.19485056 0.98479682 1.4200285e-38
0.17990479 0.19494727 0.98528558 1.4753462e-38
0.18316315 0.19555865 0.9883756 1.5029693e-38
-0.37938136 0.17125629 0.85378629 6.0871088e-39
-0.37288961 0.1693648 0.84435642 8.591885e-39
-0.36872151 0.16851176 0.84010369 5.4630097e-39
-0.36623028 0.16841923 0.83964235 4.7276083e-39
-0.36276862 0.16787644 0.8369363 4.0844025e-39
-0.3587732 0.16707821 0.83295679 3.2550047e-39
-0.35549513 0.16660601 0.83060265 3.5323133e-39
-0.35339034 0.16668114 0.8309772 4.1769624e-39
-0.35184848 0.16702446 0.83268887 4.0847654e-39
-0.34929839 0.16689055 0.83202118 3.9000112e-39
-0.34741184 0.16707397 0.83293563 5.2829429e-39
-0.34559962 0.16729578 0.83404148 5.8353936e-39
-0.3444362 0.16783667 0.83673805 6.1108972e-39
-0.34283412 0.16816962 0.83839792 6.7562667e-39
-0.3412295 0.16850576 0.84007376 7.4009102e-39
-0.33857656 0.16832528 0.83917397 6.938137e-39
-0.33673409 0.16854802 0.84028441 6.478598e-39
-0.33515123 0.16890463 0.84206229 6.3846087e-39
-0.33524472 0.1701168 0.84810549 4.6328945e-39
-0.33537775 0.17136604 0.85433346 4.8136858e-39
-0.33598536 0.17287691 0.86186582 4.7124658e-39
-0.33739716 0.17482577 0.87158173 0
-0.37073398 0.19766711 0.98545563 0
-0.3692098 0.1982912 0.98856694 8.4841784e-39
-0.36719584 0.19865948 0.990403 1.7979954e-38
-0.36610386 0.1995357 0.99477136 1.8163984e-38
-0.36385736 0.19979107 0.99604452 1.825653e-38
-0.36222956 0.20039257 0.99904323 1.8164694e-38
-0.35943878 0.20035492 0.99885553 1.8072499e-38
-0.35617316 0.20005 0.99733537 1.81647e-38
-0.33723888 0.19385418 0.96644658 1.7979587e-38
-0.33472878 0.19392619 0.96680552 1.7795196e-38
-0.33280191 0.19433992 0.96886814 1.8440565e-38
-0.32983345 0.19414715 0.96790713 1.917741e-38
-0.32737061 0.1942513 0.96842635 1.9361801e-38
-0.32540581 0.19465506 0.97043926 1.8900823e-38
-0.32413772 0.19548562 0.97457999 1.8900823e-38
-0.30597094 0.19407275 0.96753621 1.199403e-38
-0.29994094 0.19190215 0.95671481 1.0245888e-38
-0.29566717 0.19082694 0.95135444 8.9587365e-39
-0.2918098 0.19000384 0.94725096 8.7761389e-39
-0.28858253 0.18957996 0.94513774 8.2243973e-39
-0.28548244 0.18923277 0.94340682 8.0403619e-39
-0.28276253 0.18913357 0.94291222 8.0414367e-39
-0.27986425 0.18891212 0.94180822 8.1336351e-39
-0.27702424 0.18872626 0.94088167 8.0410822e-39
-0.27459416 0.18881883 0.94134313 8.4098647e-39
-0.27212304 0.18888468 0.94167137 7.9488866e-39
-0.26969633 0.18898284 0.94216084 8.5935357e-39
-0.26691961 0.18883532 0.94142538 8.9598071e-39
-0.26392722 0.18853086 0.93990749 9.7838393e-39
-0.26087129 0.18817462 0.93813145 1.7798414e-38
-0.25810501 0.18802229 0.93737203 1.834944e-38
-0.25573552 0.18815888 0.93805301 1.8072853e-38
-0.25303778 0.18805426 0.93753147 1.7427484e-38
-0.25043982 0.18802243 0.9373728 1.7429282e-38
-0.24824703 0.18829727 0.93874294 1.770515e-38
-0.24550591 0.18815759 0.93804657 1.7429643e-38
-0.24350673 0.18858957 0.94020021 1.7428208e-38
-0.2415359 0.18905294 0.94251031 1.76126e-38
-0.2396404 0.18958588 0.94516718 1.7611876e-38
-0.23755282 0.18997678 0.94711602 1.7612954e-38
-0.23518819 0.19015227 0.94799089 1.7428916e-38
-0.23275366 0.19027451 0.94860035 1.7244525e-38
-0.2306671 0.19068716 0.95065761 1.742784e-38
-0.2283766 0.1909387 0.95191157 1.7151976e-38
-0.2267019 0.19171676 0.95579058 1.705978e-38
-0.22429922 0.19189014 0.95665491 1.6968298e-38
-0.22239645 0.19250029 0.95969683 1.6784261e-38
-0.21972737 0.19245379 0.95946497 1.6786056e-38
-0.19255207 0.17276433 0.86130458 1.6415127e-38
-0.18916802 0.17182308 0.85661203 9.8713616e-39
-0.18647797 0.17149654 0.8549841 1.0702176e-38
-0.18426096 0.17160228 0.85551125 9.5036342e-39
-0.18187231 0.17154883 0.85524476 8.5809717e-39
-0.17937905 0.17139404 0.85447305 8.8568439e-39
-0.17682996 0.17118114 0.85341167 8.9479675e-39
-0.17444292 0.17112152 0.85311443 1.0790455e-38
-0.1719709 0.1709758 0.85238796 1.5031102e-38
-0.16965744 0.17098589 0.85243827 1.7519311e-38
-0.16715081 0.17079887 0.85150588 1.7979939e-38
-0.16498785 0.17096269 0.85232264 1.7795549e-38
-0.16256769 0.1708609 0.85181516 1.7518962e-38
-0.16025159 0.17086709 0.85184598 1.7242374e-38
-0.1577436 0.17066588 0.85084283 1.6965788e-38
-0.15536618 0.17060201 0.85052443 1.67814e-38
-0.15312418 0.17068717 0.85094899 1.6228592e-38
-0.15082231 0.17070717 0.85104871 1.5675412e-38
-0.14829077 0.1704638 0.8498354 1.2909898e-38
-0.14599843 0.17049202 0.84997612 1.1804258e-38
-0.14355318 0.17033973 0.84921688 1.3924388e-38
-0.14137915 0.17050953 0.85006344 1.2264496e-38
-0.13904731 0.1704915 0.8499735 1.3001705e-38
-0.13678974 0.17056549 0.85034233 1.3278292e-38
-0.13452159 0.17062859 0.85065699 1.4015506e-38
-0.13201684 0.17038853 0.84946018 1.2910592e-38
-0.12959629 0.17025052 0.84877211 9.5021993e-39
-0.12731789 0.17029764 0.84900701 9.317808e-39
-0.12497436 0.17025773 0.84880811 8.6727987e-39
-0.12281906 0.17047763 0.84990436 1.0056088e-38
-0.12040031 0.17033327 0.84918463 9.7787834e-39
-0.11820719 0.17050868 0.85005921 9.0412183e-39
-0.11583851 0.17043284 0.84968108 9.1341314e-39
-0.11339504 0.17024161 0.8487277 9.0426519e-39
-0.11103284 0.17016695 0.84835553 9.9646082e-39
-0.10862955 0.17002484 0.84764701 9.2281221e-39
-0.10644567 0.17022741 0.84865689 9.7812931e-39
-0.10414258 0.17024408 0.84874004 9.9656844e-39
-0.10195871 0.17046088 0.84982085 1.0148636e-38
-0.10017145 0.17136621 0.85433435 1.0146492e-38
-0.0990927 0.17355557 0.86524922 0
-0.098446645 0.1957154 0.97572553 0
-0.096414648 0.19699788 0.98211926 1.7333141e-38
-0.093761317 0.19704784 0.98236835 1.6873961e-38
-0.091289632 0.1974937 0.98459113 1.6966157e-38
-0.088885881 0.19811799 0.98770344 1.7057996e-38
-0.086495556 0.19881213 0.99116403 1.7057996e-38
-0.083701603 0.19859338 0.99007344 1.6873605e-38
-0.080873564 0.19827648 0.98849356 1.6873605e-38
-0.078055806 0.1979638 0.98693478 1.6873605e-38
-0.075478181 0.19825959 0.9884094 1.7150548e-38
-0.07271602 0.19807458 0.98748702 1.6966157e-38
-0.070109665 0.19831608 0.98869103 1.6873961e-38
-0.067366309 0.19817387 0.98798203 1.7150548e-38
-0.064688131 0.19821954 0.98820972 1.7057996e-38
-0.06177881 0.19753012 0.98477268 1.7242388e-38
-0.059068587 0.19744359 0.98434126 1.7242028e-38
-0.056444667 0.19765101 0.9853754 1.7518614e-38
-0.053836353 0.19793655 0.98679888 1.761081e-38
-0.051240727 0.19830123 0.98861694 1.761081e-38
-0.048546769 0.1983047 0.98863429 1.7610807e-38
-0.045878969 0.19842173 0.98921776 1.7795196e-38
-0.043078445 0.19794351 0.98683357 1.7703003e-38
-0.040290542 0.19746344 0.98444027 1.7795201e-38
-0.037492272 0.19686042 0.98143393 1.7887397e-38
-0.03472444 0.19633687 0.97882378 1.7887757e-38
-0.031871222 0.19520316 0.97317177 1.7979953e-38
-0.028674077 0.1915659 0.95503849 1.7980309e-38
-0.025891308 0.19024706 0.94846344 1.8440565e-38
-0.023201168 0.18939172 0.94419926 1.8993019e-38
-0.020642474 0.18952984 0.94488782 1.9269606e-38
-0.018061802 0.18947674 0.94462311 1.9269603e-38
-0.015425534 0.18872584 0.94087958 1.9453994e-38
-0.0063511422 0.15503186 0.77290052 1.7425975e-38
-0.0042092009 0.15374838 0.76650184 1.8347917e-38
-0.0021199605 0.15375714 0.76654553 1.8072054e-38
-3.0537161e-05 0.15404503 0.76798081 1.8347931e-38
0.0020681883 0.15444325 0.76996607 6.5465764e-39
0.0041661276 0.1544112 0.76980627 5.8086736e-39
0.0062455526 0.15394427 0.76747841 4.7952405e-39
0.0083353762 0.15390365 0.76727593 6.5466058e-39
0.010407815 0.15362272 0.7658754 1.5120802e-38
0.012500126 0.15367998 0.76616085 1.871571e-38
0.014602824 0.15383027 0.76691014 1.1985429e-38
0.016748857 0.15434225 0.76946253 5.0707568e-39
0.018896876 0.15475653 0.77152789 4.8870816e-39
0.020886334 0.15391934 0.76735413 7.376351e-39
0.022904871 0.15342936 0.76491141 1.4751965e-38
0.024933057 0.15308039 0.76317161 1.7702916e-38
0.027060742 0.153349 0.76451075 1.8439391e-38
0.02915914 0.15342511 0.76489019 1.8160657e-38
0.031347111 0.1539309 0.76741183 1.8620932e-38
0.033442389 0.15394673 0.76749068 1.8436546e-38
0.035542972 0.15398367 0.76767486 1.8252155e-38
0.037573066 0.15372808 0.76640064 1.8343981e-38
0.039738335 0.15402336 0.76787275 1.7974824e-38
0.041840859 0.15405807 0.76804578 1.8710602e-38
0.043984 0.15423189 0.76891237 1.6589734e-38
0.04605718 0.15415575 0.76853275 1.5391177e-38
0.048194885 0.15429279 0.769216 1.631204e-38
0.050263267 0.15420574 0.76878196 1.7138556e-38
0.052378718 0.15426427 0.76907378 1.5479397e-38
0.054522287 0.15439792 0.7697401 1.6767624e-38
0.056634665 0.15443662 0.76993299 1.529214e-38
0.058807559 0.15463167 0.77090544 1.4371627e-38
0.060866669 0.15452439 0.7703706 1.7783231e-38
0.062952794 0.15449058 0.77020198 1.8062336e-38
0.064865999 0.15404828 0.76799697 1.5850006e-38
0.066998519 0.15413818 0.76844519 1.7512764e-38
0.069179945 0.15433174 0.76941019 1.8342541e-38
0.071333349 0.15445326 0.77001601 1.8252507e-38
0.073455498 0.15450206 0.77025932 1.8621289e-38
0.075533167 0.15445723 0.77003574 1.8439056e-38
0.078123473 0.15543474 0.77490908 1.8255385e-38
0.081379876 0.15765117 0.78595895 0
0.10943839 0.19180867 0.95624882 0
0.11257906 0.19272298 0.96080703 0
0.11535319 0.19298249 0.9621008 1.6688122e-38
0.11829639 0.19350705 0.9647159 1.6320419e-38
0.12084289 0.19337398 0.9640525 1.6504457e-38
0.12390355 0.19405182 0.96743184 1.6412261e-38
0.12677555 0.1944121 0.96922797 1.5859809e-38
0.12995791 0.1952239 0.97327513 1.5767614e-38
0.13276038 0.19544394 0.97437221 1.5675418e-38
0.13542011 0.19544935 0.97439915 1.5213721e-38
0.13823257 0.19567072 0.97550279 1.5121525e-38
0.14110933 0.19597307 0.97701007 1.4844938e-38
0.14404039 0.19633822 0.97883052 1.438396e-38
0.14650443 0.19606507 0.97746879 1.4199572e-38
0.14947556 0.1964682 0.97947854 1.4107376e-38
0.15191887 0.19617562 0.97801989 1.3647114e-38
0.15437262 0.19590636 0.97667748 1.3739307e-38
0.15621999 0.19488972 0.97160918 1.3923701e-38
0.15892555 0.1949598 0.97195852 1.4937134e-38
0.16131569 0.19464697 0.9703989 1.5490308e-38
0.16393949 0.19462162 0.97027254 1.5398112e-38
0.16659975 0.19463965 0.97036248 1.5582501e-38
0.16953003 0.1949677 0.97199792 1.5305914e-38
0.17234749 0.19515787 0.97294599 1.5490305e-38
0.17502415 0.19518526 0.97308254 1.5398828e-38
0.17793095 0.19546466 0.97447544 1.5398831e-38
0.18109451 0.19601375 0.97721291 1.613604e-38
0.1840816 0.19635867 0.9789325 1.6689214e-38
0.18734865 0.19698812 0.98207057 1.6965801e-38
-0.43799973 0.19328971 0.95071274 8.76074e-39
-0.43140382 0.19151205 0.9419691 9.8670904e-39
-0.37904081 0.17342775 0.85301989 3.9662436e-39
-0.37300268 0.17171843 0.84461242 9.9701405e-39
-0.36812276 0.1705244 0.83873951 5.8307104e-39
-0.36565921 0.17044178 0.83833307 5.0953118e-39
-0.36169541 0.1696544 0.83446032 4.3599104e-39
-0.35790169 0.16893734 0.83093339 2.6103598e-39
-0.35466632 0.16847639 0.82866615 2.5185271e-39
-0.35282797 0.16867739 0.82965481 2.7025582e-39
-0.35133377 0.16904658 0.83147073 2.7025554e-39
-0.34887427 0.16895311 0.83101094 2.7025526e-39
-0.34694675 0.16911769 0.83182049 3.6248663e-39
-0.34492072 0.16923614 0.83240306 3.8081757e-39
-0.34331241 0.16956246 0.8340081 6.0197848e-39
-0.34123254 0.16965866 0.8344813 6.4793252e-39
-0.33983499 0.17009768 0.8366406 7.8608164e-39
-0.33802757 0.1703361 0.83781332 7.3998396e-39
-0.33656207 0.17075121 0.83985513 6.7559093e-39
-0.33526909 0.17126016 0.84235841 5.2815009e-39
-0.33478844 0.17219393 0.84695125 4.2655567e-39
-0.3349843 0.17349105 0.85333121 4.9973568e-39
-0.33514017 0.17478544 0.85969776 4.9872549e-39
-0.33721387 0.17710529 0.87110823 0
-0.3693997 0.19963223 0.98190892 0
-0.36810958 0.20038694 0.98562109 6.9164995e-39
-0.36647898 0.20096605 0.98846948 1.7979957e-38
-0.36535043 0.20183107 0.99272418 1.8071431e-38
-0.36310917 0.20208973 0.99399638 1.825653e-38
-0.36140317 0.20265242 0.99676406 1.825653e-38
-0.35937259 0.20304024 0.99867159 1.825653e-38
-0.30620828 0.1968627 0.96828675 1.1901479e-38
-0.2997216 0.19436775 0.95601517 1.0061142e-38
-0.29536834 0.1932247 0.95039296 8.6821524e-39
-0.29150578 0.19238524 0.94626403 8.3151622e-39
-0.28807539 0.19181858 0.94347686 8.1322016e-39
-0.28492811 0.19143192 0.94157505 7.8559707e-39
-0.28228447 0.19137968 0.94131804 8.0418039e-39
-0.27975744 0.19140625 0.94144875 8.2247518e-39
-0.27685046 0.19117096 0.94029146 8.5935343e-39
-0.27377027 0.19081056 0.93851882 8.3180264e-39
-0.27087533 0.19057369 0.93735373 8.2222421e-39
-0.26882929 0.19093521 0.93913192 1.0705796e-38
-0.26641792 0.19104175 0.93965596 1.6693506e-38
-0.26360187 0.19085735 0.9387489 1.7981734e-38
-0.26017615 0.19022356 0.93563157 1.8165049e-38
-0.25735423 0.19002306 0.93464541 1.7980303e-38
-0.25496221 0.19013916 0.93521643 1.7888818e-38
-0.25287306 0.19048573 0.93692112 1.7887747e-38
-0.25064576 0.19073428 0.93814361 1.8072134e-38
-0.24846405 0.19102298 0.93956357 1.7795547e-38
-0.24622352 0.19127201 0.94078845 1.7704072e-38
-0.2444315 0.19187835 0.94377083 1.7611156e-38
-0.24201693 0.1920037 0.94438732 1.7704071e-38
-0.23994201 0.19240411 0.94635677 1.7244169e-38
-0.23754299 0.1925505 0.9470768 1.7152695e-38
-0.23548706 0.19298126 0.94919556 1.7245252e-38
-0.23330005 0.19331299 0.95082718 1.6969743e-38
-0.23124368 0.19376163 0.95303392 1.6231455e-38
-0.22897053 0.19403677 0.95438719 1.5679004e-38
-0.22707598 0.19464274 0.95736772 1.5586808e-38
-0.22468741 0.19483444 0.9583106 1.5310221e-38
-0.22275916 0.19543448 0.96126199 1.6139982e-38
-0.22006901 0.19537243 0.96095675 1.6324724e-38
-0.1929933 0.17551337 0.86327821 1.7612954e-38
-0.1897257 0.17467149 0.8591373 1.0515293e-38
-0.18709086 0.17439839 0.85779411 9.7791491e-39
-0.18472214 0.17436959 0.85765243 1.0147929e-38
-0.18208857 0.17408685 0.85626173 9.2259753e-39
-0.17964199 0.17397785 0.85572559 9.0408834e-39
-0.17716305 0.17383423 0.85501921 9.7773765e-39
-0.17488094 0.17388248 0.8552565 1.300208e-38
-0.17236865 0.17370008 0.85435939 1.7242727e-38
-0.17009655 0.17375806 0.85464454 1.7979218e-38
-0.16756448 0.17354839 0.85361326 1.807106e-38
-0.16535063 0.17366703 0.85419679 1.7886671e-38
-0.16280606 0.17343675 0.85306412 1.761116e-38
-0.16049011 0.17344686 0.85311389 1.770228e-38
-0.15791297 0.17317086 0.85175633 1.7149829e-38
-0.15565611 0.17324309 0.85211164 1.7149826e-38
-0.15339625 0.17331411 0.85246092 1.7150182e-38
-0.15126044 0.17352962 0.85352093 1.6689204e-38
-0.14863266 0.17317866 0.85179472 1.6596653e-38
-0.14632344 0.17319363 0.85186833 1.6504809e-38
-0.14378969 0.17293902 0.85061598 1.6965417e-38
-0.14164594 0.1731528 0.85166752 1.5306247e-38
-0.13933574 0.17316684 0.85173661 1.3370136e-38
-0.13709942 0.17327476 0.85226738 1.3554526e-38
-0.13484287 0.17336039 0.85268861 1.3738921e-38
-0.1324105 0.17321901 0.85199314 9.4071576e-39
-0.13008507 0.17321497 0.8519733 1.0239764e-38
-0.12774874 0.17319602 0.85188007 1.005502e-38
-0.12537004 0.17311785 0.85149556 8.9490255e-39
-0.12307639 0.17315637 0.85168505 9.870979e-39
-0.12069236 0.17306679 0.85124451 9.870979e-39
-0.11841766 0.17313354 0.85157275 9.2256096e-39
-0.11613373 0.17318919 0.85184652 9.5029139e-39
-0.11383939 0.17323127 0.85205352 8.4894809e-39
-0.11144578 0.1731209 0.85151064 9.2277676e-39
-0.10897749 0.17288737 0.850362 1.0519228e-38
-0.10674585 0.17302728 0.85105014 1.0611424e-38
-0.10451778 0.1731793 0.85179788 8.8589879e-39
-0.10235892 0.17345554 0.85315657 9.4103694e-39
-0.10043736 0.17415607 0.85660219 9.5940446e-39
-0.099219561 0.17613932 0.86635697 9.8684987e-39
-0.098056465 0.19758885 0.97185838 0
-0.096054628 0.19892938 0.97845197 1.6781047e-38
-0.093449034 0.19906041 0.97909641 1.7150548e-38
-0.090976916 0.19949183 0.9812184 1.7058352e-38
-0.088547438 0.2000457 0.98394269 1.7150548e-38
-0.085959345 0.20026465 0.98501956 1.7150548e-38
-0.083159856 0.19998933 0.98366541 1.7058352e-38
-0.080426499 0.19985999 0.98302925 1.7149829e-38
-0.077642523 0.19959162 0.98170924 1.7242025e-38
-0.074990317 0.19965494 0.98202062 1.7057633e-38
-0.072214991 0.19938299 0.98068303 1.7242025e-38
-0.06964992 0.19969296 0.98220766 1.7426416e-38
-0.066923313 0.19954605 0.98148513 1.733422e-38
-0.064187557 0.19935852 0.98056269 1.7427135e-38
-0.061375711 0.19890809 0.97834718 1.7334939e-38
-0.058764592 0.1990968 0.97927541 1.7703003e-38
-0.056123488 0.19919704 0.97976846 1.7518612e-38
-0.053479899 0.19929804 0.9802652 1.7518612e-38
-0.050686948 0.19882378 0.97793251 1.7795201e-38
-0.04810375 0.19916531 0.97961241 1.7795201e-38
-0.04543576 0.1991753 0.97966146 1.7703006e-38
-0.042799987 0.19933656 0.98045468 1.7979593e-38
-0.04008431 0.19912238 0.97940123 1.8071788e-38
-0.037358154 0.19882189 0.97792321 1.8071788e-38
-0.034653045 0.19859581 0.97681123 1.8163984e-38
-0.03182308 0.197557 0.9717018 1.825654e-38
-0.028788107 0.19494134 0.95883644 1.8348372e-38
-0.025977343 0.19347318 0.9516151 1.8348372e-38
-0.023264876 0.19249257 0.94679189 1.8993016e-38
-0.020662462 0.19229145 0.94580269 1.9269603e-38
-0.018075328 0.19219546 0.94533056 1.9269603e-38
-0.015453956 0.191643 0.94261318 1.9361798e-38
-0.0063946145 0.15821424 0.77819091 1.7517468e-38
-0.0042329575 0.15671729 0.77082795 1.8163526e-38
-0.0021295149 0.15654901 0.77000028 1.8071327e-38
-3.0609906e-05 0.15651037 0.76981026 1.8163545e-38
0.0020714286 0.15678731 0.7711724 6.2699923e-39
0.0041837119 0.15717016 0.77305549 6.5469547e-39
0.006279367 0.15688108 0.77163363 1.7887744e-38
0.0083740782 0.15671942 0.77083844 1.4199918e-38
0.010440147 0.15619409 0.76825458 4.794886e-39
0.012531498 0.15615936 0.76808375 1.6780318e-38
0.014641241 0.15633094 0.76892769 5.7161262e-39
0.016779104 0.15672219 0.77085209 1.4843494e-38
0.018926499 0.15710549 0.77273738 1.5397386e-38
0.021009829 0.15693347 0.7718913 7.0994124e-39
0.023053873 0.15652606 0.76988739 1.3553423e-38
0.02509075 0.15614201 0.7679984 1.8163171e-38
0.027173689 0.15608168 0.76770169 1.7332324e-38
0.029228898 0.15588211 0.76672006 1.6685516e-38
0.031398445 0.15627825 0.76866853 1.7975914e-38
0.033506297 0.15633698 0.76895738 1.8528739e-38
0.035581924 0.15624726 0.76851612 1.8528037e-38
0.037598111 0.15592103 0.76691151 1.8067764e-38
0.039761294 0.15620665 0.76831639 1.7699333e-38
0.041958768 0.15659168 0.77021021 1.8620572e-38
0.04408953 0.15670289 0.7707572 1.8987556e-38
0.046121862 0.15647008 0.76961207 1.9080107e-38
0.048282281 0.15667315 0.77061087 1.8249979e-38
0.050388098 0.15668949 0.77069128 1.6586469e-38
0.052515745 0.15676969 0.77108574 1.5660912e-38
0.054584 0.15667324 0.77061135 1.6215173e-38
0.056722265 0.15677744 0.77112389 1.5569806e-38
0.058956701 0.15713052 0.77286053 1.7321888e-38
0.061073463 0.15715644 0.77298796 1.7230411e-38
0.06305287 0.15683895 0.77142638 1.7416244e-38
0.065084226 0.15666701 0.77058071 1.6126584e-38
0.067254901 0.1568307 0.77138579 1.7696076e-38
0.069475517 0.1570974 0.77269757 1.8250695e-38
0.07153134 0.15698673 0.77215326 1.8619137e-38
0.073675349 0.15707038 0.77256471 1.8990443e-38
0.075863615 0.15724114 0.77340454 1.8622379e-38
0.078410394 0.15812562 0.77775502 1.8255039e-38
0.081625246 0.16027537 0.78832871 0
0.105769 0.19248115 0.94673568 0
0.10872327 0.19314486 0.95000023 0
0.11169549 0.19380887 0.9532662 0
0.11440019 0.19398901 0.95415229 1.7610081e-38
0.11750406 0.19482301 0.9582544 1.7150545e-38
0.12015524 0.19488649 0.95856661 1.733422e-38
0.12320478 0.19557963 0.96197593 1.7334939e-38
0.12596552 0.195795 0.96303517 1.751933e-38
0.12888469 0.19624276 0.96523756 1.7058352e-38
0.13170652 0.19652741 0.96663761 1.7057633e-38
0.13434841 0.19653763 0.96668786 1.7149829e-38
0.13719136 0.19683592 0.96815503 1.7426416e-38
0.1399883 0.1970582 0.96924835 1.7149829e-38
0.14297131 0.1975293 0.97156549 1.7149832e-38
0.14551139 0.19738247 0.97084332 1.6965801e-38
0.14821781 0.19746248 0.97123688 1.6873605e-38
0.15057085 0.19707717 0.96934164 1.7150192e-38
0.15298873 0.19678853 0.96792197 1.7242388e-38
0.15510929 0.19613372 0.96470124 1.7150192e-38
0.15763186 0.19600062 0.96404654 1.7334223e-38
0.16016488 0.19588466 0.96347618 1.7149829e-38
0.16272663 0.19580701 0.96309423 1.7057633e-38
0.16541547 0.19588232 0.96346468 1.668957e-38
0.16808817 0.19593646 0.96373093 1.650446e-38
0.17083505 0.19607408 0.96440786 1.6412264e-38
0.17366411 0.19630042 0.96552116 1.6320431e-38
0.17654434 0.19657697 0.96688139 1.678141e-38
0.17957707 0.19701269 0.96902454 1.7057996e-38
0.18234137 0.19714557 0.9696781 1.7426779e-38
0.18537486 0.19756153 0.97172403 1.761117e-38
0.18871166 0.19828448 0.97527993 1.7518975e-38
-0.43930602 0.19530982 0.94793952 8.9451369e-39
-0.43246838 0.19340749 0.93870652 1.1803201e-38
-0.37543839 0.17515707 0.85012776 1.392769e-38
-0.36988583 0.17363831 0.84275651 6.1069456e-39
-0.36675194 0.17324311 0.84083831 4.727974e-39
-0.36298537 0.17254218 0.83743638 4.2687937e-39
-0.35943756 0.171937 0.83449918 2.7951168e-39
-0.35617107 0.17145957 0.83218193 2.1511879e-39
-0.35376853 0.17139459 0.8318665 2.5185411e-39
-0.35237971 0.17182305 0.83394611 2.7032855e-39
-0.350104 0.17182183 0.83394015 2.5188914e-39
-0.34836122 0.17208384 0.83521181 2.8880285e-39
-0.34606928 0.17207624 0.83517492 2.9802213e-39
-0.34436706 0.1723637 0.83657014 3.994725e-39
-0.34231281 0.17247763 0.8371231 5.0063532e-39
-0.34124371 0.17309278 0.84010875 5.8346719e-39
-0.33964387 0.17344522 0.84181935 5.5588067e-39
-0.33797815 0.17376859 0.8433888 4.2666329e-39
-0.33634654 0.17411405 0.84506547 3.8985777e-39
-0.33552617 0.17488711 0.84881753 3.9893384e-39
-0.3355622 0.17612039 0.85480326 4.3534308e-39
-0.33581936 0.17748779 0.86144 4.8954138e-39
-0.36841375 0.20176877 0.97928816 0
-0.367769 0.2028857 0.9847092 1.0051501e-38
-0.36640272 0.20361806 0.98826373 1.770337e-38
-0.36523154 0.20447052 0.99240112 1.7979954e-38
-0.36333296 0.20492542 0.994609 1.8071783e-38
-0.36149219 0.20542002 0.99700952 1.8348369e-38
-0.35933712 0.20574215 0.99857301 1.8348369e-38
-0.30062869 0.19756983 0.9589085 9.6923653e-39
-0.29595503 0.19620426 0.9522807 8.5896009e-39
-0.29193258 0.19525008 0.94764954 8.2229665e-39
-0.28840092 0.19461 0.94454294 7.8556147e-39
-0.28556415 0.19443156 0.94367683 7.6712235e-39
-0.28291741 0.19438043 0.9434287 7.8574084e-39
-0.2804552 0.19445629 0.94379687 8.5013401e-39
-0.27792975 0.19448932 0.94395715 9.788123e-39
-0.27517217 0.194359 0.94332469 1.5501392e-38
-0.2724095 0.19422258 0.9426626 1.8077511e-38
-0.26986092 0.19423768 0.94273585 1.8073929e-38
-0.26695761 0.1939953 0.94155943 1.8073929e-38
-0.26372764 0.19350849 0.93919671 1.8258325e-38
-0.26042971 0.19296181 0.93654341 1.7797347e-38
-0.25788391 0.1929671 0.93656909 1.7704795e-38
-0.25567135 0.19322434 0.93781757 1.7611523e-38
-0.25353071 0.19354168 0.93935782 1.7797707e-38
-0.25142217 0.19389026 0.94104964 1.660096e-38
-0.24904303 0.19403519 0.94175303 1.5035074e-38
-0.24684155 0.19432299 0.94314986 1.6233967e-38
-0.24452011 0.19452141 0.94411296 1.4115246e-38
-0.24158528 0.19423091 0.94270301 1.1535204e-38
-0.23891293 0.19414745 0.94229794 9.2310298e-39
-0.23662899 0.19438127 0.94343275 9.046277e-39
-0.23471464 0.19492713 0.94608212 8.6782106e-39
-0.23281357 0.19549628 0.94884449 8.7721844e-39
-0.23077707 0.19596323 0.95111084 8.9562282e-39
-0.22819838 0.19597515 0.95116872 8.7714852e-39
-0.22610492 0.19640885 0.95327365 8.6789182e-39
-0.2237417 0.19661558 0.95427704 9.3224898e-39
-0.22195135 0.19733652 0.95777613 9.5980089e-39
-0.21943551 0.19742189 0.9581905 1.0333427e-38
-0.19271989 0.17761455 0.86205524 1.8533477e-38
-0.18930127 0.17661737 0.8572154 1.6873955e-38
-0.18662691 0.17629834 0.85566694 1.8072139e-38
-0.18407172 0.17608522 0.85463256 1.6966506e-38
-0.18156262 0.17591129 0.85378844 1.3279034e-38
-0.17908271 0.17576151 0.85306144 9.8692204e-39
-0.17667073 0.17567533 0.85264319 9.4089499e-39
-0.17449687 0.17582679 0.8533783 1.401588e-38
-0.17225255 0.17591037 0.85378397 1.7978867e-38
-0.17006239 0.17605233 0.85447294 1.8162542e-38
-0.16744687 0.17575175 0.85301405 1.8161826e-38
-0.16488835 0.17550339 0.85180867 1.8160747e-38
-0.16229755 0.17521308 0.85039967 1.788416e-38
-0.15984054 0.1750609 0.84966099 1.7976353e-38
-0.1573838 0.17490454 0.84890211 1.7701924e-38
-0.1551799 0.1750287 0.84950471 1.7518609e-38
-0.15308557 0.17528206 0.85073441 1.7333497e-38
-0.15098396 0.17553475 0.8519609 1.7057631e-38
-0.14848043 0.17532076 0.85092229 1.705691e-38
-0.14590774 0.17501704 0.8494482 1.7241299e-38
-0.14337446 0.17475155 0.84815961 1.7517883e-38
-0.14112754 0.17483212 0.84855062 1.7518237e-38
-0.13896431 0.17502075 0.84946615 1.5674322e-38
-0.1367117 0.17510131 0.84985715 1.4108073e-38
-0.13441113 0.17512219 0.84995848 1.4015877e-38
-0.13197945 0.17496994 0.84921956 1.2727993e-38
-0.12969306 0.17500834 0.84940594 1.3097127e-38
-0.12737353 0.17500259 0.84937799 9.778433e-39
-0.12498073 0.17489409 0.84885144 9.6865905e-39
-0.12261999 0.17482722 0.84852684 9.8709818e-39
-0.12022872 0.1747134 0.84797442 9.2256124e-39
-0.11801353 0.17485601 0.84866661 1.0055373e-38
-0.11580966 0.17502142 0.84946942 9.2263285e-39
-0.11366996 0.17529257 0.85078543 8.5816779e-39
-0.11124944 0.1751329 0.85001051 9.044098e-39
-0.10880894 0.17493436 0.84904683 9.9660543e-39
-0.10648812 0.17492375 0.84899533 1.1256437e-38
-0.10445648 0.17539825 0.85129833 1.042596e-38
-0.10232139 0.17571665 0.85284376 8.8568411e-39
-0.10053714 0.17666636 0.85745317 9.317106e-39
-0.099232249 0.1785237 0.86646777 9.6841088e-39
-0.097326592 0.19874753 0.96462446 0
-0.095304795 0.20002277 0.97081387 1.6781044e-38
-0.092731901 0.20018119 0.97158277 1.705835e-38
-0.090127729 0.20027943 0.97205961 1.7058352e-38
-0.087585993 0.20052657 0.97325903 1.6966157e-38
-0.084893145 0.20043236 0.9728018 1.7058352e-38
-0.082221769 0.20038441 0.97256911 1.7150548e-38
-0.079553969 0.20034227 0.97236454 1.7242744e-38
-0.076857947 0.2002237 0.97178912 1.751933e-38
-0.07423605 0.20029667 0.97214329 1.7611526e-38
-0.071573839 0.20026225 0.97197622 1.7518612e-38
-0.069039799 0.20059758 0.97360373 1.7703003e-38
-0.066326052 0.2004167 0.97272581 1.7795917e-38
-0.063587502 0.20014268 0.97139591 1.7611526e-38
-0.060757324 0.19954394 0.96848989 1.8071785e-38
-0.058228318 0.19992487 0.9703387 1.797959e-38
-0.055605557 0.20000482 0.97072673 1.7795198e-38
-0.05300286 0.20016852 0.97152132 1.7887394e-38
-0.050189856 0.19951345 0.96834189 1.7888113e-38
-0.0475858 0.19966236 0.96906459 1.7979953e-38
-0.044978067 0.19981243 0.96979296 1.8072148e-38
-0.042411868 0.20017727 0.97156376 1.7979953e-38
-0.039720986 0.19996303 0.97052395 1.8072148e-38
-0.037031326 0.19972484 0.96936786 1.8163984e-38
-0.034328125 0.19937137 0.96765232 1.8531687e-38
-0.031647254 0.19909956 0.96633303 1.8440568e-38
-0.028722897 0.19710748 0.9566645 1.8624959e-38
-0.02594813 0.19584663 0.95054495 1.8348369e-38
-0.023229208 0.19477431 0.94534039 1.8901543e-38
-0.020627031 0.1945354 0.94418085 1.8994095e-38
-0.018039159 0.19438255 0.94343901 1.9269603e-38
-0.015416902 0.19374673 0.94035304 1.9361798e-38
-0.0063650357 0.15959382 0.77459133 1.7608944e-38
-0.0042158258 0.15817566 0.76770824 1.8347195e-38
-0.0021216935 0.1580652 0.7671721 1.7333759e-38
-3.0500165e-05 0.15804012 0.76705039 1.7703272e-38
0.0020645582 0.15836242 0.76861465 5.2558375e-39
0.0041672722 0.1586515 0.77001774 5.9937837e-39
0.0062546693 0.15835913 0.76859868 3.9672777e-39
0.0083301626 0.15798771 0.76679605 3.6903349e-39
0.010410381 0.15783693 0.76606423 4.3349869e-39
0.012511274 0.15799762 0.76684415 6.0867038e-39
0.014649366 0.15851483 0.7693544 5.2562215e-39
0.016744159 0.15849264 0.7692467 5.8093953e-39
0.018881697 0.15883496 0.77090818 6.2703706e-39
0.020949716 0.15858248 0.76968277 7.1001201e-39
0.022991989 0.15819883 0.76782072 1.2539271e-38
0.025013898 0.15775077 0.76564604 1.8346479e-38
0.027101362 0.15775332 0.76565838 1.7423078e-38
0.029188303 0.15775266 0.76565522 1.4932706e-38
0.031365871 0.15820922 0.76787114 1.6683721e-38
0.033428665 0.15806594 0.76717573 1.8895013e-38
0.03545228 0.15776521 0.76571608 1.9080859e-38
0.037452098 0.15739787 0.76393318 1.8344722e-38
0.039630145 0.15777883 0.76578218 1.7884463e-38
0.041833453 0.15821721 0.76790988 1.8345441e-38
0.043938026 0.15825817 0.76810867 1.8529829e-38
0.045962416 0.15801974 0.76695144 1.8991176e-38
0.048078835 0.15810469 0.76736379 1.7883019e-38
0.050213058 0.15823866 0.76801401 1.806451e-38
0.052269202 0.1581257 0.76746577 1.7231504e-38
0.054279778 0.15788889 0.76631635 1.6493925e-38
0.056370679 0.15789461 0.76634419 1.7230411e-38
