# .PCD v0.7 - Point Cloud Data file format
VERSION 0.7
FIELDS x y z rgb
SIZE 4 4 4 4
TYPE F F F F
COUNT 1 1 1 1
WIDTH 1004
HEIGHT 1
VIEWPOINT 0 0 0 1 0 0 0
POINTS 1004
DATA ascii
0.17787391 0.2163527 0.75890452 1.9270692e-38
0.17993385 0.21634221 0.75886774 1.9455083e-38
0.18233511 0.21673769 0.76025498 1.9823505e-38
0.18440756 0.21673785 0.76025552 1.973131e-38
0.18663077 0.21691319 0.76087058 2.0007896e-38
0.18896346 0.21721055 0.7619136 1.9823505e-38
0.19479743 0.22148232 0.77689779 0
-0.56454772 0.23283249 0.80897599 4.7963195e-39
-0.56473976 0.233825 0.81242448 4.4282559e-39
-0.56481606 0.23477724 0.81573302 6.7313488e-39
-0.56682926 0.23654531 0.82187617 8.2072019e-39
-0.56304836 0.23589984 0.81963348 1.1157462e-38
-0.5608142 0.23589984 0.81963348 1.1342572e-38
-0.55412525 0.2340185 0.81309682 1.1250377e-38
-0.54993808 0.23318286 0.81019336 1.1711355e-38
-0.54733056 0.23301296 0.80960304 1.1711355e-38
-0.54831201 0.23437579 0.81433821 1.1895746e-38
-0.54791212 0.23515685 0.81705201 1.1895746e-38
-0.54913986 0.23664571 0.82222503 1.161844e-38
-0.5468986 0.23664571 0.82222503 1.1895027e-38
-0.54687351 0.2376086 0.82557058 1.1895027e-38
-0.53990847 0.23555167 0.81842381 1.1710636e-38
-0.53464705 0.23422404 0.81381094 1.1895746e-38
-0.53231704 0.23417491 0.81364024 1.1987942e-38
-0.53258342 0.23527233 0.81745321 1.1619159e-38
-0.53083467 0.23548505 0.8181923 1.1619159e-38
-0.52762461 0.23504855 0.81667566 1.1895746e-38
-0.52459377 0.23468855 0.81542486 1.1895746e-38
-0.52106458 0.23410158 0.81338543 1.2079418e-38
-0.51884741 0.23410158 0.81338543 1.1895027e-38
-0.51573098 0.23369409 0.81196964 1.1619159e-38
-0.5143733 0.23408347 0.81332254 1.1895746e-38
-0.51331252 0.23461191 0.81515861 1.1895746e-38
-0.5125913 0.23530084 0.81755227 1.2080137e-38
-0.50821638 0.23431124 0.81411391 1.1711356e-38
-0.50439513 0.23356934 0.81153619 1.226453e-38
-0.50107634 0.23305464 0.80974787 1.1987587e-38
-0.49901399 0.23312232 0.80998302 1.1987943e-38
-0.49628007 0.23287548 0.80912536 1.1711356e-38
-0.49320769 0.23246692 0.80770582 1.1987942e-38
-0.49100602 0.23246692 0.80770582 1.1987942e-38
-0.48877016 0.23245065 0.80764931 1.1895746e-38
-0.48649728 0.23241657 0.80753088 1.1895746e-38
-0.48353493 0.23205128 0.80626172 1.226381e-38
-0.48005497 0.23143312 0.80411392 1.1895029e-38
-0.47649008 0.23076817 0.80180353 1.2262732e-38
-0.47415933 0.23069754 0.80155814 1.2354928e-38
-0.47171795 0.23057219 0.80112261 1.1987223e-38
-0.47017679 0.23088774 0.80221897 1.2356005e-38
-0.46772668 0.23075779 0.80176747 1.2264528e-38
-0.46445295 0.23021838 0.79989326 1.2080137e-38
-0.46161518 0.22989099 0.79875576 1.2172334e-38
-0.46014023 0.2302424 0.79997677 1.226453e-38
-0.45908239 0.23080689 0.80193806 1.2080139e-38
-0.45689642 0.23080689 0.80193806 1.226453e-38
-0.45338577 0.23013449 0.79960179 1.2172334e-38
-0.44924337 0.22913337 0.79612339 1.2172334e-38
-0.44520977 0.22817829 0.79280502 1.2263811e-38
-0.44259408 0.22794415 0.79199147 1.2356009e-38
-0.44071311 0.22808796 0.79249114 1.2263811e-38
-0.43892905 0.2282836 0.79317087 1.2632594e-38
-0.43644479 0.22811519 0.79258573 1.2540401e-38
-0.43415108 0.2280452 0.79234254 1.2723713e-38
-0.43218505 0.22814749 0.79269797 1.2632596e-38
-0.42996925 0.22811829 0.79259652 1.2356009e-38
-0.4283241 0.22839308 0.79355127 1.2632596e-38
-0.42618981 0.22840852 0.79360491 1.2724792e-38
-0.42462066 0.22872852 0.79471678 1.290918e-38
-0.4223614 0.22867817 0.79454184 1.2816985e-38
-0.42070448 0.22895512 0.79550409 1.2909183e-38
-0.41855416 0.22896501 0.79553849 1.3001379e-38
-0.4160828 0.22879848 0.79495984 1.2816988e-38
-0.41287708 0.22822428 0.79296476 1.3185414e-38
-0.41042611 0.22806343 0.7924059 1.327761e-38
-0.4080725 0.22795525 0.79203004 1.3369805e-38
-0.40623802 0.22813746 0.79266316 1.3646392e-38
-0.40434426 0.22828817 0.79318678 1.3738588e-38
-0.40218216 0.22828817 0.79318678 1.3830784e-38
-0.39998564 0.22826853 0.79311854 1.3922979e-38
-0.3980971 0.22842538 0.7936635 1.4291762e-38
-0.39548767 0.22816806 0.79276943 1.4660544e-38
-0.39305523 0.22801058 0.79222226 1.4845291e-38
-0.39098579 0.22806309 0.79240471 1.4753096e-38
-0.38942239 0.22841299 0.79362047 1.5397386e-38
-0.38738582 0.22848773 0.79388016 1.5397386e-38
-0.38477162 0.2282207 0.79295236 1.5673976e-38
-0.38227201 0.228019 0.79225153 1.6134954e-38
-0.38111296 0.22861917 0.79433686 1.6411541e-38
-0.37962797 0.22902958 0.79576278 1.7242022e-38
-0.37807047 0.22940068 0.7970522 1.7610804e-38
-0.37666368 0.22986805 0.79867607 1.770228e-38
-0.37132674 0.22792846 0.79193693 1.8071062e-38
-0.37029436 0.22862387 0.79435313 1.8347649e-38
-0.36875775 0.22901429 0.79570967 1.8716432e-38
-0.36654302 0.22898571 0.79561037 1.8900823e-38
-0.36456832 0.22910763 0.79603398 1.9085214e-38
-0.36274859 0.22932898 0.79680306 1.926925e-38
-0.36185166 0.23013991 0.79962063 1.9638032e-38
-0.36086237 0.23090155 0.80226696 1.9914619e-38
-0.35964331 0.23152459 0.80443168 1.9914975e-38
-0.35756743 0.23160028 0.80469471 1.9822779e-38
-0.35514006 0.23144785 0.80416507 1.9638388e-38
-0.35244262 0.23111641 0.8030135 1.9361801e-38
-0.34958735 0.2306767 0.80148572 1.9269606e-38
-0.34683284 0.23029836 0.80017114 1.8716432e-38
-0.3446418 0.23029174 0.80014819 1.8808627e-38
-0.34304571 0.23068513 0.80151498 1.8439842e-38
-0.34132805 0.23100127 0.80261344 1.8255451e-38
-0.33903521 0.23092972 0.80236483 1.807106e-38
-0.3363812 0.23060963 0.80125266 1.7518965e-38
-0.33417884 0.23059702 0.80120885 1.7057987e-38
-0.33132866 0.23013428 0.79960108 1.7057987e-38
-0.32870618 0.22982462 0.79852515 1.7242378e-38
-0.32609469 0.22951856 0.79746175 1.7334573e-38
-0.32460859 0.2300058 0.7991547 1.761116e-38
-0.3226749 0.23018035 0.79976118 1.7427129e-38
-0.32028741 0.23003136 0.79924345 1.7519681e-38
-0.31752756 0.22961104 0.79778308 1.7150898e-38
-0.31525701 0.2295412 0.79754043 1.7242375e-38
-0.3130635 0.22952688 0.79749066 1.7150179e-38
-0.31109381 0.22967759 0.79801428 1.7057987e-38
-0.30897778 0.22972162 0.79816729 1.7150182e-38
-0.3068071 0.22972538 0.79818034 1.6965791e-38
-0.30489525 0.22992438 0.79887176 1.6965791e-38
-0.30282259 0.23000407 0.79914868 1.7057987e-38
-0.3007988 0.23012231 0.79955947 1.6966151e-38
-0.29861823 0.23012146 0.79955655 1.7058347e-38
-0.29640466 0.230095 0.79946458 1.678176e-38
-0.29473701 0.23049505 0.80085456 1.6873955e-38
-0.29253054 0.23047656 0.80079031 1.6873955e-38
-0.29033232 0.23046432 0.80074781 1.6873955e-38
-0.28755364 0.22998768 0.7990917 1.6414412e-38
-0.28524262 0.22988063 0.79871976 1.6230021e-38
-0.28320742 0.22999592 0.79912037 1.6137825e-38
-0.28114665 0.23009209 0.79945451 1.6230021e-38
-0.27840123 0.22962508 0.79783183 1.6137824e-38
-0.27610648 0.22952531 0.79748523 1.6137824e-38
-0.27395988 0.22954813 0.79756451 1.5954152e-38
-0.2722756 0.22996177 0.79900169 1.5954152e-38
-0.27009144 0.22995649 0.79898334 1.5954152e-38
-0.26792514 0.22996643 0.79901791 1.6046347e-38
-0.26555991 0.22980443 0.798455 1.6046347e-38
-0.26351357 0.22991794 0.7988494 1.6138185e-38
-0.26157019 0.23012395 0.7995652 1.6138185e-38
-0.25971097 0.23040807 0.80055237 1.6230381e-38
-0.25737128 0.23026715 0.80006272 1.6506252e-38
-0.2555407 0.23058321 0.80116087 1.6782839e-38
-0.25365078 0.2308507 0.80209029 1.696723e-38
-0.25108457 0.23050201 0.80087876 1.7150542e-38
-0.24828786 0.22993372 0.79890424 1.7611521e-38
-0.24624763 0.23006214 0.79935044 1.7703716e-38
-0.2445078 0.23047602 0.80078846 1.7980303e-38
-0.24294113 0.23106204 0.80282456 1.7888107e-38
-0.24069603 0.23100761 0.80263543 1.825689e-38
-0.23826905 0.230776 0.80183071 1.8441281e-38
-0.23549329 0.23019916 0.7998265 1.8625672e-38
-0.23321651 0.23010387 0.7994954 1.8533477e-38
-0.23158512 0.23064956 0.80139142 1.8902262e-38
-0.23015423 0.23140724 0.80402398 1.8994458e-38
-0.22862741 0.23208211 0.80636883 1.9086653e-38
-0.22639431 0.23204616 0.8062439 1.8717871e-38
-0.22401674 0.23186 0.80559707 1.9178852e-38
-0.22166194 0.23169392 0.80502003 1.9271047e-38
-0.21982536 0.23207164 0.80633241 1.9363243e-38
-0.21764231 0.23208751 0.80638754 1.9455439e-38
-0.21545023 0.23209397 0.80641001 1.9455439e-38
-0.21318908 0.2320254 0.80617177 1.9455439e-38
-0.2109001 0.23192479 0.80582219 1.9455439e-38
-0.20853983 0.23174284 0.80519003 1.9363243e-38
-0.20611048 0.23147945 0.80427486 1.9086656e-38
-0.20423602 0.23184027 0.80552852 1.8810069e-38
-0.20205192 0.23185363 0.80557495 1.8625678e-38
-0.19980909 0.23179914 0.80538565 1.8072504e-38
-0.1971 0.23119655 0.80329192 1.7887757e-38
-0.19474272 0.2309977 0.80260104 1.761117e-38
-0.19248983 0.23091957 0.80232954 1.742678e-38
-0.18967593 0.2301589 0.79968661 1.6965802e-38
-0.18692929 0.2294631 0.79726905 1.6229316e-38
-0.18421103 0.22878619 0.79491711 1.5953811e-38
-0.18187629 0.22857514 0.79418385 1.6046009e-38
-0.17938694 0.22816238 0.7927497 1.5677947e-38
-0.17689112 0.22773118 0.79125154 1.5862338e-38
-0.17430151 0.22716713 0.78929174 1.5953814e-38
-0.17194541 0.22689714 0.78835362 1.5953814e-38
-0.16963439 0.22668053 0.78760105 1.5861262e-38
-0.16763125 0.22687507 0.78827697 1.5585754e-38
-0.16538194 0.22673714 0.78779775 1.567795e-38
-0.16332148 0.22685793 0.78821743 1.567795e-38
-0.16067164 0.22615233 0.78576583 1.5585754e-38
-0.15869263 0.22638467 0.78657305 1.5770865e-38
-0.15647277 0.22627509 0.7861923 1.586306e-38
-0.15460743 0.22668223 0.78760695 1.5678669e-38
-0.15217811 0.2262623 0.78614789 1.5770865e-38
-0.15010445 0.22636674 0.78651077 1.6323319e-38
-0.1481175 0.22660688 0.78734511 1.6691379e-38
-0.14638798 0.22725371 0.7895925 1.7151638e-38
-0.14442383 0.22755013 0.79062247 1.7336027e-38
-0.14263052 0.22812881 0.79263306 1.7704446e-38
-0.14050865 0.22819172 0.79285163 1.8073229e-38
-0.13829888 0.22811158 0.79257321 1.8348737e-38
-0.13563253 0.22726385 0.78962779 1.8625324e-38
-0.13293402 0.22633404 0.78639716 1.890191e-38
-0.13054039 0.22590135 0.78489375 1.8994106e-38
-0.12843859 0.22596766 0.78512418 1.8809718e-38
-0.12645727 0.2262518 0.78611141 1.9086302e-38
-0.12428493 0.22619808 0.78592473 1.8901909e-38
-0.1223339 0.22655229 0.78715545 1.8901909e-38
-0.12023479 0.22664003 0.78746033 1.8901909e-38
-0.11785053 0.22618371 0.78587484 1.8625322e-38
-0.11560587 0.22598335 0.78517866 1.8533126e-38
-0.11342339 0.22589928 0.7848866 1.8533126e-38
-0.11133162 0.22599612 0.78522307 1.8533126e-38
-0.1089718 0.22554198 0.78364515 1.8440931e-38
-0.10654294 0.22492391 0.78149766 1.7979953e-38
-0.10429373 0.22466759 0.7806071 1.8164344e-38
-0.1023034 0.22496994 0.78165758 1.8533126e-38
-0.10050516 0.22571652 0.78425157 1.8164344e-38
-0.098537467 0.22610672 0.78560734 1.8256179e-38
-0.096590668 0.22656326 0.7871936 1.8440568e-38
-0.094556443 0.22683086 0.78812331 1.8256177e-38
-0.092502326 0.22706203 0.78892654 1.8071785e-38
-0.090287492 0.22690031 0.78836465 1.8163981e-38
-0.088014282 0.22658044 0.78725326 1.8256177e-38
-0.085778788 0.22634409 0.78643209 1.8348369e-38
-0.083571441 0.22617182 0.78583354 1.7979587e-38
-0.081488915 0.22633716 0.78640801 1.8071783e-38
-0.079352915 0.22635891 0.78648353 1.7979587e-38
-0.077083789 0.22599156 0.78520721 1.7887391e-38
-0.074670814 0.22516946 0.78235084 1.7703e-38
-0.072333314 0.22453329 0.78014046 1.7795198e-38
-0.070146754 0.22434133 0.77947348 1.7610804e-38
-0.06805256 0.22444201 0.7798233 1.7518612e-38
-0.065896213 0.22433759 0.77946049 1.751933e-38
-0.063626952 0.223829 0.77769339 1.751933e-38
-0.06148269 0.22374022 0.77738494 1.7427135e-38
-0.059301324 0.22350527 0.77656859 1.7242741e-38
-0.057104293 0.22319169 0.77547908 1.7150545e-38
-0.054818273 0.22249283 0.77305084 1.6966157e-38
-0.05264676 0.22222142 0.77210784 1.7058352e-38
-0.050620019 0.22256392 0.77329791 1.7242744e-38
-0.048624001 0.22307715 0.7750811 1.7427132e-38
-0.046592154 0.22346517 0.7764293 1.7242022e-38
-0.044468768 0.22343019 0.7763077 1.7149826e-38
-0.042372558 0.22353506 0.77667212 1.7334218e-38
-0.040261738 0.22356984 0.77679294 1.7149829e-38
-0.03815379 0.22362532 0.7769857 1.7057633e-38
-0.03603372 0.2236121 0.77693975 1.6965438e-38
-0.033972342 0.22398417 0.77823251 1.6873242e-38
-0.031888843 0.22425026 0.77915704 1.6965438e-38
-0.029732419 0.22400491 0.77830458 1.7057633e-38
-0.027604979 0.22395697 0.77813804 1.7057631e-38
-0.025503866 0.22413245 0.77874774 1.7149826e-38
-0.023413561 0.22444341 0.77982813 1.7242022e-38
-0.021262014 0.22417074 0.77888077 1.705835e-38
-0.019096546 0.22367454 0.77715671 1.7334936e-38
-0.016985966 0.22377764 0.77751493 1.7242741e-38
-0.014891901 0.2241587 0.77883893 1.751933e-38
-0.012802565 0.22474954 0.78089178 1.751933e-38
-0.01068511 0.22498389 0.78170604 1.7610807e-38
-0.0085452916 0.22474684 0.78088242 1.7703003e-38
-0.0064070313 0.22440709 0.77970195 1.8071785e-38
-0.0042694127 0.2237637 0.77746654 1.8164344e-38
-0.0021423241 0.22294785 0.77463186 1.8625322e-38
-3.0739364e-05 0.22249718 0.77306598 1.8625322e-38
0.0020763376 0.22247818 0.773 1.8717518e-38
0.0041889022 0.22277018 0.77401453 1.90863e-38
0.0062996335 0.22280172 0.77412409 1.9178496e-38
0.0083958199 0.22243208 0.77283978 1.9270692e-38
0.010506278 0.22251299 0.77312094 1.9639474e-38
0.012603159 0.22232738 0.77247602 1.9547278e-38
0.014707795 0.22231211 0.77242297 1.9639474e-38
0.016806565 0.22222309 0.77211368 1.9916061e-38
0.018915702 0.22227572 0.77229655 2.0100452e-38
0.02106264 0.22271754 0.77383161 2.0008257e-38
0.023162175 0.22262327 0.77350408 2.0192648e-38
0.025301918 0.22289898 0.77446204 2.0192648e-38
0.027350279 0.22238916 0.77269065 2.0284843e-38
0.029389402 0.22188252 0.77093035 2.0101531e-38
0.03141671 0.22136024 0.76911569 2.056143e-38
0.033499211 0.22126786 0.76879472 2.056107e-38
0.035631739 0.22149736 0.76959211 2.0653263e-38
0.037817907 0.2220162 0.77139485 2.0468872e-38
0.039986968 0.22238527 0.77267718 2.0468872e-38
0.042056736 0.22219284 0.77200854 2.0561067e-38
0.044153024 0.22215216 0.77186722 2.0561783e-38
0.046290789 0.22231437 0.77243084 2.0561065e-38
0.04842544 0.22244819 0.77289575 2.0468869e-38
0.05043662 0.2220273 0.77143341 2.065326e-38
0.052480411 0.22177793 0.77056694 2.0561065e-38
0.054607168 0.22188485 0.77093846 2.0653616e-38
0.056705303 0.22187187 0.77089334 2.0653616e-38
0.058886424 0.2221729 0.77193928 2.0377029e-38
0.060916428 0.22190268 0.77100039 2.0284834e-38
0.062965609 0.22171803 0.7703588 2.0100442e-38
0.064843953 0.22096312 0.7677359 2.0100442e-38
0.066946104 0.22099423 0.76784402 2.0008247e-38
0.069058187 0.22105525 0.76805604 1.9639464e-38
0.071195655 0.22119156 0.76852959 1.9455073e-38
0.073276237 0.22114839 0.76837963 1.9362877e-38
0.075362168 0.22112329 0.76829243 1.9178486e-38
0.077440828 0.22107883 0.76813793 1.8901899e-38
0.079450868 0.22084594 0.76732874 1.8993016e-38
0.081597835 0.22099583 0.76784956 1.8532038e-38
0.083716124 0.22106253 0.76808131 1.8439842e-38
0.085664697 0.22068873 0.76678252 1.8163255e-38
0.087580018 0.22024913 0.76525515 1.8163255e-38
0.089663111 0.22024208 0.76523066 1.8071057e-38
0.091946825 0.22071695 0.76688057 1.8163252e-38
0.094087772 0.2208356 0.7672928 1.8071057e-38
0.096281894 0.2210712 0.76811141 1.8255448e-38
0.098619744 0.22161974 0.77001733 1.8347644e-38
0.10086058 0.22193196 0.77110213 1.8255448e-38
0.10300169 0.22201648 0.7713958 1.8255448e-38
0.10502353 0.22184566 0.77080226 1.8532035e-38
0.10706372 0.22171956 0.77036417 1.8255448e-38
0.10917547 0.22174361 0.77044773 1.8348001e-38
0.11102062 0.22123556 0.76868248 1.8348001e-38
0.1131606 0.22132292 0.76898605 1.8440197e-38
0.11531866 0.22144182 0.76939917 1.8440197e-38
0.11739113 0.22139509 0.7692368 1.8532035e-38
0.11955836 0.22152556 0.7696901 1.8531675e-38
0.12174591 0.22168854 0.77025634 1.8716066e-38
0.12394276 0.22186261 0.77086121 1.8716066e-38
0.12584861 0.22151868 0.76966619 1.862387e-38
0.12765628 0.22101606 0.76791984 1.8716783e-38
0.12995188 0.22136077 0.76911753 1.8624588e-38
0.13219172 0.22160107 0.76995248 1.8808979e-38
0.13471742 0.22230558 0.77240026 1.8624588e-38
0.13684344 0.22233903 0.77251649 1.8808622e-38
0.13898285 0.22239287 0.77270359 1.8900817e-38
0.14074264 0.22184674 0.77080607 1.8808625e-38
0.14269537 0.22161633 0.77000546 1.8440565e-38
0.14453232 0.22121538 0.76861238 1.8348369e-38
0.14640991 0.22088721 0.76747215 1.8348369e-38
0.14818078 0.22040953 0.76581246 1.8163981e-38
0.1494599 0.21922384 0.76169276 1.8256177e-38
0.15142263 0.21905963 0.76112223 1.8440568e-38
0.15343064 0.21896444 0.76079148 1.8441287e-38
0.15533638 0.2187278 0.75996929 1.8533482e-38
0.15733758 0.21863003 0.75962961 1.8533126e-38
0.1596283 0.2189319 0.76067841 1.8625322e-38
0.16199982 0.21933541 0.76208043 1.8625322e-38
0.16404507 0.21929257 0.76193154 1.908594e-38
0.16617437 0.21936172 0.76217186 1.8901549e-38
0.16787572 0.21887124 0.76046765 1.9270331e-38
0.16983387 0.21872343 0.75995409 1.9178136e-38
0.17154175 0.21826078 0.75834662 1.9178496e-38
0.17350869 0.21813481 0.75790894 1.9455083e-38
0.17549062 0.21803044 0.75754631 1.9362887e-38
0.17728154 0.21769394 0.75637716 1.973131e-38
0.17914093 0.21744829 0.75552362 1.9639114e-38
0.18120851 0.21745807 0.7555576 1.973131e-38
0.18326379 0.21745302 0.75554007 1.9823865e-38
0.18557899 0.21775308 0.75658262 1.9823865e-38
0.18795033 0.21811168 0.75782859 1.9916061e-38
0.19383234 0.22249223 0.77304882 0
-0.57358283 0.23787005 0.81872493 5.9033832e-39
-0.5650804 0.23525937 0.80973923 4.7970384e-39
-0.56582022 0.23649113 0.81397879 4.0594734e-39
-0.56433296 0.23679808 0.81503528 6.4547619e-39
-0.56604868 0.23845677 0.82074434 7.8384194e-39
-0.56267971 0.2379781 0.8190968 1.0327701e-38
-0.56044698 0.2379781 0.8190968 1.1342572e-38
-0.55657852 0.23728074 0.81669658 1.1434768e-38
-0.55242968 0.23645781 0.81386411 1.1342572e-38
-0.54898053 0.23592889 0.81204367 1.1619159e-38
-0.54875082 0.23678489 0.81498992 1.1711355e-38
-0.54983813 0.23821846 0.81992412 1.1711355e-38
-0.55117005 0.23977013 0.82526481 1.1711355e-38
-0.54912388 0.23985897 0.82557058 1.1711355e-38
-0.54486912 0.23897985 0.82254469 1.1711355e-38
-0.54056811 0.23807308 0.81942374 1.1711355e-38
-0.53734177 0.23763405 0.81791264 1.180355e-38
-0.53441548 0.23732463 0.81684762 1.1895746e-38
-0.53220779 0.23733306 0.81687665 1.1711355e-38
-0.52973229 0.23722164 0.81649315 1.1619159e-38
-0.52563834 0.23638144 0.81360126 1.1895746e-38
-0.52370071 0.23650794 0.81403667 1.1711355e-38
-0.52023959 0.23594458 0.81209767 1.1895027e-38
-0.51802599 0.23594458 0.81209767 1.1710636e-38
-0.51531893 0.23571891 0.8113209 1.1619159e-38
-0.51249981 0.23543979 0.81036019 1.180355e-38
-0.51176232 0.23611867 0.81269687 1.180355e-38
-0.51103598 0.23680864 0.81507164 1.1895747e-38
-0.50871104 0.2367606 0.8149063 1.161916e-38
-0.50448495 0.23582345 0.81168073 1.161916e-38
-0.50145119 0.23543787 0.81035358 1.1987943e-38
-0.49813429 0.23491535 0.80855513 1.180355e-38
-0.49594554 0.23492257 0.80857998 1.180355e-38
-0.49295303 0.23454742 0.80728877 1.1895746e-38
-0.49075249 0.23454742 0.80728877 1.180355e-38
-0.4890385 0.234781 0.80809271 1.1711355e-38
-0.48674107 0.23473534 0.80793554 1.1987942e-38
-0.48355505 0.23425879 0.80629528 1.1895747e-38
-0.47951031 0.23335995 0.80320162 1.1802833e-38
-0.47654912 0.23298262 0.80190289 1.1895029e-38
-0.47719845 0.23437513 0.80669576 1.1895027e-38
-0.47469276 0.23422377 0.80617476 1.1802831e-38
-0.47228685 0.23412044 0.80581915 1.1895746e-38
-0.46923026 0.23369212 0.80434489 1.1895746e-38
-0.46668148 0.23351386 0.80373132 1.1895746e-38
-0.46309897 0.23281422 0.80132324 1.1895746e-38
-0.4608196 0.23276618 0.80115789 1.1711355e-38
-0.45898166 0.23294172 0.8017621 1.2080137e-38
-0.45679617 0.23294172 0.8017621 1.226453e-38
-0.45317769 0.23220745 0.79923481 1.2080139e-38
-0.44980115 0.23159066 0.79711187 1.2172334e-38
-0.44655293 0.23103426 0.79519683 1.2080139e-38
-0.44468796 0.23119159 0.79573834 1.1987943e-38
-0.4430576 0.23147301 0.79670697 1.226453e-38
-0.44122005 0.23164846 0.79731083 1.2080137e-38
-0.43828931 0.23124884 0.79593539 1.207942e-38
-0.43583241 0.23109651 0.79541105 1.2356009e-38
-0.43284446 0.23065963 0.7939074 1.2262735e-38
-0.43075293 0.23069848 0.7940411 1.2171618e-38
-0.42768189 0.23021048 0.79236144 1.2172334e-38
-0.42606038 0.23050173 0.79336387 1.2172334e-38
-0.42385873 0.23048049 0.79329079 1.226453e-38
-0.42260814 0.23097883 0.79500604 1.226453e-38
-0.41986158 0.23066047 0.79391026 1.2356007e-38
-0.41781041 0.23072281 0.79412484 1.2171615e-38
-0.41487828 0.23029679 0.79265851 1.2356009e-38
-0.41201064 0.2299023 0.79130071 1.2355654e-38
-0.40950191 0.22970498 0.79062152 1.2263461e-38
-0.4069024 0.22945437 0.78975898 1.2356375e-38
-0.40468413 0.22941723 0.78963119 1.2263464e-38
-0.40235493 0.22931647 0.78928435 1.2079069e-38
-0.40020347 0.22931647 0.78928435 1.2447849e-38
-0.39780802 0.22917591 0.78880054 1.2356009e-38
-0.39568058 0.22918907 0.78884584 1.2356009e-38
-0.39356217 0.22920762 0.78890967 1.2448205e-38
-0.39094019 0.22893149 0.78795928 1.2263814e-38
-0.3887262 0.22889253 0.78782523 1.2448205e-38
-0.38672212 0.22897744 0.78811747 1.2448205e-38
-0.38472643 0.22906831 0.78843021 1.2355654e-38
-0.38274783 0.22917041 0.78878164 1.2263814e-38
-0.37992376 0.22876461 0.78738487 1.2263458e-38
-0.37850282 0.22920382 0.78889662 1.2908827e-38
-0.37662244 0.22936828 0.78946269 1.327761e-38
-0.37486443 0.22960956 0.79029316 1.3093219e-38
-0.37294313 0.22975306 0.79078704 1.3185414e-38
-0.36805066 0.22805718 0.78494996 1.3001023e-38
-0.36629897 0.22829898 0.78578222 1.3185414e-38
-0.36412439 0.22827849 0.78571171 1.3554553e-38
-0.3615244 0.22798949 0.78471702 1.4107726e-38
-0.35947454 0.22804604 0.78491169 1.4291762e-38
-0.35741356 0.22809619 0.78508425 1.4476153e-38
-0.35577679 0.22841927 0.78619629 1.475274e-38
-0.35363173 0.22841799 0.78619188 1.5213718e-38
-0.35191125 0.22869258 0.78713697 1.5121878e-38
-0.35022575 0.22899342 0.78817242 1.5582857e-38
-0.3483769 0.22919053 0.78885084 1.5858367e-38
-0.345938 0.22899947 0.78819323 1.5950563e-38
-0.34318203 0.22859481 0.78680044 1.6411541e-38
-0.34031495 0.22811061 0.7851339 1.622715e-38
-0.33819023 0.228121 0.78516966 1.6134954e-38
-0.33637235 0.22833984 0.78592288 1.6319343e-38
-0.33500496 0.22886924 0.78774506 1.5951639e-38
-0.3326723 0.22874177 0.78730625 1.5859443e-38
-0.33023003 0.22853678 0.78660077 1.5675052e-38
-0.32805553 0.22851564 0.78652799 1.5398465e-38
-0.32529995 0.2280868 0.78505194 1.5675052e-38
-0.32283029 0.22785406 0.78425086 1.613603e-38
-0.32023421 0.22752842 0.78313005 1.6136746e-38
-0.31915611 0.22828417 0.78573126 1.5952355e-38
-0.31689537 0.2281985 0.78543639 1.6228942e-38
-0.31450474 0.22801749 0.7848134 1.6136746e-38
-0.31161538 0.22746995 0.78292882 1.6044195e-38
-0.30951935 0.22749798 0.78302526 1.6043835e-38
-0.30735987 0.22747941 0.78296137 1.613603e-38
-0.30562571 0.22777757 0.78398758 1.613603e-38
-0.30378756 0.22800188 0.78475964 1.613603e-38
-0.30184951 0.22815387 0.78528279 1.7057987e-38
-0.29964092 0.22810209 0.78510457 1.6966151e-38
-0.29762542 0.22819759 0.78543329 1.6966151e-38
-0.29578707 0.22843131 0.78623772 1.7058347e-38
-0.29411992 0.22880161 0.78751224 1.678176e-38
-0.2918992 0.22874357 0.78731245 1.6966151e-38
-0.29013899 0.22904818 0.78836089 1.6966151e-38
-0.28813678 0.22916487 0.78876257 1.678176e-38
-0.28617838 0.22931844 0.78929114 1.6873955e-38
-0.28366554 0.22902668 0.78828692 1.6689564e-38
-0.28136039 0.22889945 0.78784901 1.6414412e-38
-0.27936926 0.22902767 0.78829032 1.6322217e-38
-0.27746019 0.2292257 0.7889719 1.6414412e-38
-0.27480114 0.22880235 0.78751481 1.6230021e-38
-0.27269578 0.22883698 0.78763402 1.6230021e-38
-0.27050313 0.22879836 0.78750104 1.6045628e-38
-0.26917854 0.22949919 0.78991324 1.5953794e-38
-0.26704013 0.22951189 0.78995693 1.604599e-38
-0.26497689 0.22958991 0.79022551 1.6322217e-38
-0.26241717 0.22923553 0.78900576 1.6230021e-38
-0.26038226 0.22933751 0.78935677 1.6597725e-38
-0.25848103 0.22955991 0.79012227 1.6689564e-38
-0.25687131 0.23004714 0.79179925 1.6598804e-38
-0.25452477 0.22987714 0.79121411 1.7058347e-38
-0.25284559 0.23031214 0.79271132 1.7334934e-38
-0.25096032 0.23056526 0.79358256 1.7519328e-38
-0.24909796 0.23084404 0.79454207 1.7888107e-38
-0.24630794 0.23026049 0.79253358 1.8164694e-38
-0.24421531 0.23032433 0.79275328 1.825689e-38
-0.24215789 0.23042281 0.79309225 1.8441284e-38
-0.24069591 0.23109476 0.79540503 1.8717871e-38
-0.23867357 0.23123601 0.79589123 1.8717871e-38
-0.23639044 0.23112489 0.79550874 1.8994458e-38
-0.23363082 0.23054151 0.79350084 1.9086653e-38
-0.23135225 0.23042637 0.79310453 1.9178849e-38
-0.22979538 0.23103464 0.79519808 1.9178849e-38
-0.22846603 0.23188542 0.7981264 1.9086653e-38
-0.22670917 0.23231447 0.79960316 1.9271045e-38
-0.22435677 0.23213567 0.79898775 1.9271045e-38
-0.22196762 0.23191495 0.79822809 1.9455436e-38
-0.21973374 0.23185372 0.79801732 1.9455439e-38
-0.21793167 0.23225145 0.79938626 1.9363243e-38
-0.21594122 0.23245442 0.80008483 1.9547634e-38
-0.21388306 0.23258787 0.8005442 1.9271047e-38
-0.2114888 0.23235485 0.79974216 1.9271047e-38
-0.20877682 0.23176426 0.79770941 1.9086656e-38
-0.20645471 0.2315986 0.79713923 1.8994461e-38
-0.20417807 0.23148096 0.79673427 1.8533482e-38
-0.20223811 0.2317466 0.79764861 1.8441284e-38
-0.19993477 0.23159707 0.79713392 1.8164697e-38
-0.19742715 0.23120503 0.79578459 1.7795917e-38
-0.19470349 0.23054849 0.7935248 1.7611526e-38
-0.19246149 0.23045391 0.7931993 1.7150192e-38
-0.19071421 0.2309563 0.79492849 1.7057996e-38
-0.18827718 0.23062535 0.79378939 1.6505903e-38
-0.18559781 0.2299864 0.79159015 1.613712e-38
-0.18282105 0.22921032 0.78891897 1.6045644e-38
-0.18043184 0.22890744 0.78787649 1.6137839e-38
-0.1780526 0.22861007 0.78685296 1.5953808e-38
-0.17560339 0.22821449 0.78549141 1.6046007e-38
-0.1731454 0.2277976 0.78405654 1.5861618e-38
-0.17060867 0.22726542 0.78222483 1.5953814e-38
-0.16843148 0.22720474 0.78201598 1.5493559e-38
-0.1663878 0.22732493 0.7824297 1.567795e-38
-0.16436261 0.22747384 0.78294218 1.567795e-38
-0.16200598 0.2271619 0.78186852 1.5494278e-38
-0.15947774 0.22659783 0.77992707 1.5586473e-38
-0.15753219 0.22685763 0.78082126 1.5402082e-38
-0.15556331 0.22709049 0.78162277 1.5678669e-38
-0.15370198 0.22748898 0.78299433 1.5678669e-38
-0.15129754 0.22708356 0.78159893 1.5954534e-38
-0.14936654 0.22738729 0.78264433 1.6231121e-38
-0.14752442 0.22783709 0.78419244 1.6691379e-38
-0.14553629 0.2280713 0.7849986 1.7151635e-38
-0.14355358 0.22832112 0.78585845 1.7519699e-38
-0.14154327 0.22853394 0.78659093 1.7796642e-38
-0.13936807 0.22848301 0.78641564 1.8348737e-38
-0.13711625 0.22830288 0.78579569 1.8348737e-38
-0.13451245 0.2275217 0.78310692 1.8533128e-38
-0.13201471 0.22689757 0.78095871 1.8717519e-38
-0.12959854 0.22639553 0.77923077 1.890191e-38
-0.12721145 0.22592838 0.77762288 1.890191e-38
-0.12513916 0.22601396 0.77791744 1.90863e-38
-0.12303919 0.22605166 0.7780472 1.8994105e-38
-0.12121808 0.22661197 0.77997571 1.8901909e-38
-0.11883654 0.22612588 0.77830267 1.8901909e-38
-0.11648167 0.22567381 0.77674669 1.90863e-38
-0.11437686 0.22569843 0.77683139 1.8901909e-38
-0.11241226 0.22600588 0.77788961 1.8809713e-38
-0.11020937 0.22583684 0.77730781 1.8625322e-38
-0.10790807 0.22545558 0.77599555 1.8717518e-38
-0.10565884 0.22517003 0.77501273 1.8533126e-38
-0.10346332 0.22498962 0.77439177 1.8625322e-38
-0.10139451 0.22508299 0.77471316 1.8625322e-38
-0.099436887 0.2254324 0.77591574 1.8440931e-38
-0.097641893 0.2261737 0.77846724 1.8348735e-38
-0.095629491 0.22643313 0.77936018 1.8532766e-38
-0.093675219 0.22684516 0.78077835 1.8624959e-38
-0.091559894 0.22687726 0.7808888 1.8440568e-38
-0.089504182 0.22706209 0.78152502 1.8256177e-38
-0.087312058 0.22690146 0.78097212 1.8348372e-38
-0.08524105 0.22705542 0.78150201 1.8256896e-38
-0.082899146 0.22647719 0.77951181 1.81647e-38
-0.080744535 0.22639367 0.77922434 1.8256893e-38
-0.078554131 0.22620256 0.7785666 1.7980306e-38
-0.076416485 0.22615701 0.77840978 1.8071783e-38
-0.074056558 0.22543219 0.77591503 1.7795198e-38
-0.071721978 0.2247442 0.77354705 1.7887394e-38
-0.069534041 0.22448795 0.77266502 1.7610807e-38
-0.067406796 0.22441773 0.77242339 1.7518612e-38
-0.06529697 0.22440289 0.77237231 1.7427135e-38
-0.063116618 0.22413659 0.77145571 1.7427132e-38
-0.06100072 0.2240887 0.7712909 1.7519328e-38
-0.05888376 0.22403337 0.77110046 1.7426413e-38
-0.056702945 0.223722 0.77002871 1.7334218e-38
-0.054458849 0.22312742 0.76798224 1.7334218e-38
-0.052298162 0.2228407 0.76699537 1.7610807e-38
-0.050245609 0.22301002 0.76757818 1.7518612e-38
-0.048245199 0.22343557 0.76904285 1.7518609e-38
-0.046199251 0.2236793 0.76988178 1.7610804e-38
-0.044123553 0.22379532 0.77028114 1.7518609e-38
-0.042067036 0.22402512 0.77107203 1.7242022e-38
-0.039950658 0.2239435 0.77079111 1.7242025e-38
-0.037869021 0.22405836 0.77118647 1.7242025e-38
-0.035757102 0.22399706 0.77097547 1.7517533e-38
-0.033692889 0.22424558 0.77183086 1.7242025e-38
-0.031612594 0.22441305 0.77240729 1.7149829e-38
-0.029453116 0.22400223 0.77099323 1.7149829e-38
-0.027357547 0.22405164 0.77116334 1.733422e-38
-0.025276456 0.22423775 0.77180392 1.733422e-38
-0.023226561 0.22475953 0.7735998 1.7426416e-38
-0.021110561 0.22468191 0.77333266 1.7334939e-38
-0.018987875 0.22450806 0.77273428 1.7611526e-38
-0.016890228 0.2246238 0.77313262 1.7427135e-38
-0.014794283 0.22479838 0.77373356 1.7611526e-38
-0.012694586 0.22496459 0.77430558 1.7887394e-38
-0.010588109 0.22505291 0.77460957 1.8071785e-38
-0.0084613105 0.22464572 0.77320808 1.81647e-38
-0.0063459929 0.22437431 0.7722739 1.8256896e-38
-0.004229154 0.22375298 0.77013534 1.8533126e-38
-0.0021240886 0.22314367 0.76803815 1.8717518e-38
-3.0489782e-05 0.22278081 0.76678926 1.8901909e-38
0.0020571332 0.22250804 0.76585042 1.8901909e-38
0.0041515222 0.22287327 0.76710749 1.90863e-38
0.0062472341 0.22304106 0.767685 1.9178496e-38
0.0083392179 0.22302495 0.76762956 1.9639474e-38
0.01043387 0.22307235 0.7677927 1.973167e-38
0.012504452 0.22267528 0.76642603 1.9823865e-38
0.014591256 0.22263941 0.76630259 2.0008257e-38
0.016668804 0.22248895 0.76578474 2.0008257e-38
0.018749405 0.22240822 0.76550686 2.0008257e-38
0.020840181 0.2224523 0.76565856 2.0192648e-38
0.02294692 0.22264321 0.76631564 2.0284843e-38
0.025074961 0.2229917 0.76751512 2.0192648e-38
0.02717055 0.22302015 0.76761305 2.0284843e-38
0.029197751 0.22252332 0.765903 2.0192648e-38
0.031243498 0.22222471 0.76487523 2.0377039e-38
0.033283714 0.22192661 0.7638492 2.0468875e-38
0.035350326 0.22182922 0.76351398 2.0376679e-38
0.037467767 0.22204389 0.76425284 2.0377395e-38
0.039578184 0.2221965 0.76477814 2.0469591e-38
0.041659854 0.22218056 0.76472324 2.0377392e-38
0.043740828 0.22216257 0.76466137 2.0561783e-38
0.045807932 0.22207899 0.76437366 2.0285197e-38
0.047915112 0.22218852 0.76475066 2.0376673e-38
0.049899362 0.22174263 0.76321596 2.0561065e-38
0.051998228 0.2218214 0.76348704 2.0561065e-38
0.054159824 0.2221514 0.76462287 2.0468869e-38
0.056281377 0.22229879 0.76513016 2.0469225e-38
0.058451135 0.22261922 0.76623309 2.0469225e-38
0.060459249 0.22232315 0.76521403 2.0469225e-38
0.062411595 0.22184859 0.76358068 2.0284834e-38
0.064210109 0.2208755 0.76023138 2.0284834e-38
0.066374563 0.22118269 0.7612887 1.9916051e-38
0.068657741 0.22185488 0.76360232 1.9916051e-38
0.070834838 0.22215484 0.76463473 1.973166e-38
0.072693057 0.22146614 0.76226431 1.9362877e-38
0.074611902 0.22099532 0.76064378 1.9362877e-38
0.076695874 0.22102579 0.76074868 1.9178486e-38
0.078768939 0.22102407 0.76074272 1.8809704e-38
0.080875956 0.22111525 0.76105654 1.890082e-38
0.082900971 0.2209833 0.76060241 1.8440921e-38
0.084884495 0.22074987 0.75979894 1.7979943e-38
0.086678497 0.22004645 0.75737786 1.8071057e-38
0.088662565 0.21984702 0.75669146 1.7978861e-38
0.090885878 0.22023642 0.75803173 1.8163252e-38
0.09315946 0.22072761 0.75972235 1.8071057e-38
0.095331758 0.22096269 0.76053149 1.8347644e-38
0.097787432 0.22183059 0.76351869 1.8255448e-38
0.099957593 0.22202812 0.7641986 1.8255448e-38
0.1022483 0.22247988 0.76575351 1.8255448e-38
0.10415979 0.22210497 0.76446307 1.8347644e-38
0.10638331 0.22239704 0.76546836 1.8347644e-38
0.1084265 0.22230813 0.76516235 1.8439839e-38
0.11022268 0.22172572 0.76315773 1.8439839e-38
0.11222702 0.22157586 0.76264191 1.8347644e-38
0.11446282 0.22188009 0.7636891 1.8532035e-38
0.1164694 0.22173709 0.76319689 1.8532035e-38
0.11848345 0.22161308 0.76277006 1.8716426e-38
0.12051283 0.22152153 0.76245493 1.8716426e-38
0.12283731 0.22196631 0.76398581 1.862423e-38
0.12474244 0.22165115 0.76290107 1.8901175e-38
0.12657268 0.22121543 0.76140136 1.8901175e-38
0.12869391 0.22129413 0.76167226 1.9085566e-38
0.13084288 0.22141728 0.76209611 1.899337e-38
0.13323127 0.22193541 0.76387948 1.9085209e-38
0.13547568 0.22220144 0.76479512 1.9177404e-38
0.13783668 0.22264774 0.76633126 1.9085209e-38
0.13950497 0.22197849 0.76402771 1.9177407e-38
0.14140277 0.2216887 0.76303035 1.8993739e-38
0.14316425 0.22119674 0.76133704 1.8809348e-38
0.14506102 0.22092485 0.76040125 1.880935e-38
0.14675985 0.22036344 0.75846893 1.8717155e-38
0.14829068 0.21956888 0.75573409 1.8902265e-38
0.15019794 0.21934579 0.75496626 1.8902265e-38
0.15218119 0.21923824 0.75459605 1.8994461e-38
0.15397495 0.21886417 0.75330859 1.9086656e-38
0.15592676 0.21872169 0.75281817 1.8994105e-38
0.15797727 0.21871954 0.75281078 1.8994105e-38
0.16033356 0.21913536 0.754242 1.9270693e-38
0.16232888 0.21905355 0.75396043 1.9455084e-38
0.16421546 0.2188289 0.75318718 1.9362527e-38
0.16565554 0.21802214 0.75041038 1.9454723e-38
0.16756436 0.21784444 0.74979877 1.9546918e-38
0.16962442 0.21786529 0.74987054 1.9546918e-38
0.17165262 0.21784519 0.74980134 1.9455439e-38
0.17376566 0.217932 0.75010014 1.9732026e-38
0.17557126 0.21763566 0.74908018 1.9824221e-38
0.17766508 0.21769932 0.74929929 1.9732026e-38
0.17973995 0.21773857 0.74943435 1.9823865e-38
0.18194886 0.21793748 0.75011903 1.973167e-38
0.1839852 0.21792759 0.75008494 1.9916062e-38
0.18610097 0.21801095 0.75037187 1.973167e-38
0.19132684 0.22169624 0.76305628 0
-0.57693398 0.24150456 0.82350832 6.2721657e-39
-0.56747544 0.23847309 0.81317127 4.7970384e-39
-0.56850851 0.23984404 0.81784612 3.9672777e-39
-0.56608063 0.23975995 0.81755936 6.5469575e-39
-0.56645787 0.24086797 0.82133764 7.1923297e-39
-0.56247908 0.24012518 0.81880474 9.2206336e-39
-0.56024712 0.24012518 0.81880474 1.1526245e-38
-0.55751455 0.23990974 0.81807011 1.1526963e-38
-0.55446112 0.23955394 0.81685692 1.1619159e-38
-0.55323523 0.23998806 0.8183372 1.1250377e-38
-0.55007124 0.23958154 0.81695098 1.1526963e-38
-0.54872859 0.23996823 0.81826955 1.1434768e-38
-0.54746598 0.24039322 0.81971878 1.1711355e-38
-0.54711121 0.24122196 0.82254469 1.1526963e-38
-0.54486912 0.24122196 0.82254469 1.1526963e-38
-0.54223049 0.24104571 0.8219437 1.1711355e-38
-0.53993767 0.24102235 0.82186401 1.180355e-38
-0.53621739 0.24035893 0.81960183 1.1526963e-38
-0.53321028 0.24001098 0.81841534 1.1434768e-38
-0.52968293 0.23942494 0.81641704 1.1895746e-38
-0.52622169 0.23886399 0.81450421 1.1619159e-38
-0.52517301 0.23939802 0.81632519 1.1619159e-38
-0.52156609 0.23876549 0.81416833 1.161844e-38
-0.51934683 0.23876549 0.81416833 1.1802831e-38
-0.51642734 0.23844221 0.81306601 1.1710636e-38
-0.51269394 0.2377387 0.8106671 1.1710636e-38
-0.51101846 0.23798752 0.81151551 1.1526963e-38
-0.50928652 0.23821211 0.81228137 1.1619159e-38
-0.5076257 0.23847203 0.81316769 1.161916e-38
-0.50463307 0.23810585 0.81191903 1.180355e-38
-0.50187069 0.23784557 0.81103152 1.1526963e-38
-0.49857709 0.23733011 0.80927384 1.180355e-38
-0.49644813 0.23736693 0.80939937 1.1526963e-38
-0.49468914 0.23758176 0.81013191 1.1619159e-38
-0.49248084 0.23758176 0.81013191 1.180355e-38
-0.48974666 0.23732692 0.80926293 1.1711355e-38
-0.48774806 0.23742783 0.80960703 1.180355e-38
-0.48372546 0.23653993 0.80657941 1.1802831e-38
-0.48048872 0.23602998 0.80484051 1.161844e-38
-0.47860476 0.23618291 0.80536199 1.161844e-38
-0.47719845 0.23657405 0.80669576 1.1895027e-38
-0.47265542 0.23540656 0.80271471 1.1895027e-38
-0.46943152 0.23488827 0.80094737 1.1710636e-38
-0.46618438 0.23435345 0.7991237 1.1987942e-38
-0.46476045 0.23473445 0.80042285 1.180355e-38
-0.46250609 0.23469763 0.80029732 1.1619159e-38
-0.46077457 0.23492706 0.80107963 1.1895746e-38
-0.45917511 0.2352263 0.80210006 1.1987942e-38
-0.45518249 0.23429659 0.79892981 1.1987943e-38
-0.45300475 0.23429659 0.79892981 1.1803552e-38
-0.45067266 0.23421638 0.79865628 1.2080139e-38
-0.44675079 0.23330517 0.79554915 1.1895747e-38
-0.4458456 0.23396814 0.79780984 1.1895747e-38
-0.44314888 0.23369285 0.79687113 1.1987943e-38
-0.44147438 0.23395658 0.79777038 1.161916e-38
-0.43804735 0.23328958 0.79549599 1.1895747e-38
-0.43589231 0.23329672 0.79552037 1.1987587e-38
-0.43258643 0.23268491 0.79343414 1.1987587e-38
-0.43058941 0.23277451 0.79373968 1.1987587e-38
-0.42737105 0.23220144 0.79178554 1.2080139e-38
-0.42533293 0.23226707 0.79200929 1.2080139e-38
-0.42307287 0.23221155 0.79181999 1.2171615e-38
-0.42134234 0.23244758 0.79262483 1.1895029e-38
-0.41919068 0.2324525 0.79264164 1.2171615e-38
-0.41696122 0.23241414 0.79251081 1.207942e-38
-0.41385072 0.23188172 0.79069531 1.2263814e-38
-0.41074544 0.23134665 0.78887081 1.198759e-38
-0.40812251 0.23107906 0.78795832 1.1895394e-38
-0.40612549 0.23116492 0.7882511 1.1987593e-38
-0.40418366 0.23128326 0.78865463 1.2079788e-38
-0.40140396 0.23092087 0.7874189 1.2079786e-38
-0.39855212 0.23051284 0.78602755 1.2079786e-38
-0.39640954 0.23051284 0.78602755 1.2079423e-38
-0.39397538 0.23034237 0.78544629 1.2171618e-38
-0.39239442 0.23067158 0.78656888 1.2171618e-38
-0.38974866 0.23037504 0.78555769 1.1895747e-38
-0.38722631 0.23014857 0.78478545 1.2172334e-38
-0.38458464 0.22984827 0.78376144 1.226453e-38
-0.3829124 0.23012723 0.78471267 1.2172334e-38
-0.38070858 0.23008806 0.7845791 1.2172334e-38
-0.37787449 0.22966538 0.7831378 1.2171262e-38
-0.37573358 0.22966158 0.78312486 1.2263458e-38
-0.37407014 0.22995126 0.78411263 1.2448205e-38
-0.37229666 0.23017623 0.78487974 1.2448205e-38
-0.3701326 0.23016094 0.78482759 1.2448205e-38
-0.36892352 0.23074275 0.78681153 1.2724792e-38
-0.36680239 0.23075759 0.78686213 1.2263811e-38
-0.36457133 0.23070306 0.78667617 1.2356007e-38
-0.36169821 0.23023915 0.78509432 1.2540398e-38
-0.35902637 0.22989862 0.7839331 1.2356009e-38
-0.35643625 0.22960664 0.78293753 1.235637e-38
-0.35440257 0.22967176 0.78315955 1.2171978e-38
-0.35208368 0.22955172 0.78275025 1.2540761e-38
-0.34987253 0.22950087 0.78257686 1.2540761e-38
-0.34766808 0.22945385 0.78241652 1.2540401e-38
-0.34567311 0.22954534 0.78272849 1.2356009e-38
-0.34341002 0.22945879 0.78243339 1.2539325e-38
-0.34121048 0.22941393 0.78228039 1.2539325e-38
-0.33820719 0.22882466 0.78027105 1.2908107e-38
-0.33581081 0.2286412 0.77964544 1.2724436e-38
-0.33385026 0.22875401 0.78003013 1.2816988e-38
-0.33254635 0.22932108 0.78196377 1.2540401e-38
-0.33047807 0.22936498 0.78211343 1.2724792e-38
-0.32779875 0.22898258 0.78080952 1.2540045e-38
-0.32569697 0.22900127 0.78087324 1.2447849e-38
-0.32309115 0.22866347 0.77972138 1.2724436e-38
-0.32099548 0.22868465 0.77979362 1.2632596e-38
-0.31844595 0.22838061 0.77875686 1.2725152e-38
-0.31704083 0.22889873 0.7805236 1.2909899e-38
-0.31431201 0.22846171 0.77903342 1.2817704e-38
-0.3120001 0.22832385 0.77856332 1.2633312e-38
-0.30947146 0.22802441 0.77754223 1.3001739e-38
-0.30760184 0.22820976 0.77817428 1.3001739e-38
-0.30550393 0.22822715 0.77823359 1.3093575e-38
-0.30393073 0.2286395 0.77963966 1.3370161e-38
-0.30222842 0.22895986 0.78073204 1.4568705e-38
-0.30021125 0.22904453 0.78102076 1.4936408e-38
-0.29766941 0.22872727 0.77993894 1.5214074e-38
-0.29549503 0.22868983 0.77981126 1.4937847e-38
-0.29331392 0.22864658 0.7796638 1.5122238e-38
-0.2914364 0.2288411 0.78032708 1.530663e-38
-0.28888986 0.22850926 0.77919555 1.5214434e-38
-0.28699011 0.22868794 0.77980483 1.530663e-38
-0.28506976 0.22885272 0.78036672 1.5122238e-38
-0.28361312 0.22939508 0.78221607 1.5214434e-38
-0.28128025 0.22923152 0.78165841 1.530663e-38
-0.27860406 0.22878355 0.78013086 1.4937847e-38
-0.27619511 0.22854985 0.77933395 1.4938203e-38
-0.27397999 0.22847414 0.7790758 1.4939282e-38
-0.27192086 0.22852835 0.77926064 1.5215869e-38
-0.26989138 0.22860853 0.77953404 1.5031478e-38
-0.26795068 0.22876577 0.78007025 1.4939282e-38
-0.26630685 0.22918102 0.78148621 1.5308065e-38
-0.2642096 0.2292096 0.78158367 1.5215869e-38
-0.2620239 0.22916131 0.78141898 1.6044195e-38
-0.25964108 0.22893842 0.7806589 1.5951999e-38
-0.25775364 0.22915223 0.78138804 1.6044195e-38
-0.25599185 0.22948226 0.78251338 1.6689564e-38
-0.25453389 0.23009248 0.78459418 1.6689564e-38
-0.25239611 0.2300933 0.78459698 1.6873958e-38
-0.2502661 0.23010129 0.78462422 1.7242741e-38
-0.24806158 0.2300403 0.78441626 1.7703719e-38
-0.24604176 0.23015103 0.78479379 1.7703719e-38
-0.24412119 0.23035735 0.78549737 1.7887391e-38
-0.24211916 0.23048978 0.78594893 1.8441284e-38
-0.24027155 0.23077288 0.78691429 1.8441284e-38
-0.23855564 0.23118873 0.78833228 1.8810066e-38
-0.23652948 0.23130873 0.78874147 1.8994461e-38
-0.23405254 0.23098604 0.78764117 1.9178133e-38
-0.23158127 0.23066306 0.78653979 1.9271047e-38
-0.22932719 0.23055236 0.78616232 1.9363243e-38
-0.22791377 0.23129271 0.78868687 1.9363243e-38
-0.22635962 0.23190299 0.79076785 1.936324e-38
-0.22449701 0.23220593 0.79180086 1.936324e-38
-0.22209109 0.23194735 0.79091913 1.9455436e-38
-0.21985549 0.2318633 0.79063255 1.9455436e-38
-0.21772391 0.23188841 0.79071814 1.936324e-38
-0.21570514 0.23203535 0.79121917 1.9363243e-38
-0.21372223 0.23222421 0.7918632 1.9271047e-38
-0.21160989 0.23227488 0.79203594 1.9178852e-38
-0.20956495 0.23240134 0.79246718 1.8810069e-38
-0.20676942 0.23168936 0.79003942 1.8717874e-38
-0.20457014 0.23163755 0.78986275 1.8441287e-38
-0.20227505 0.231475 0.78930843 1.8256893e-38
-0.20018718 0.23154862 0.78955948 1.8072499e-38
-0.19784021 0.23132092 0.78878301 1.7703719e-38
-0.19532017 0.23088361 0.78729188 1.7611523e-38
-0.19316541 0.23087317 0.78725624 1.7334939e-38
-0.19104931 0.23090923 0.78737921 1.7058352e-38
-0.18945082 0.23157881 0.78966242 1.6781765e-38
-0.18713681 0.23137912 0.7889815 1.6413706e-38
-0.18502702 0.23143022 0.78915572 1.632151e-38
-0.18227297 0.23066719 0.78655386 1.613712e-38
-0.1799707 0.23046453 0.78586286 1.5953448e-38
-0.17741053 0.22992277 0.78401548 1.6137839e-38
-0.17503971 0.22961617 0.78297001 1.6137483e-38
-0.17278348 0.22945419 0.78241765 1.5953092e-38
-0.17034912 0.22904865 0.78103483 1.5769423e-38
-0.16831081 0.2291721 0.78145576 1.5769423e-38
-0.16623361 0.2292451 0.78170466 1.5585752e-38
-0.16414511 0.22930418 0.78190613 1.5862338e-38
-0.16182594 0.22903834 0.78099966 1.5862338e-38
-0.15937242 0.22857273 0.77941197 1.5677947e-38
-0.15747531 0.22890334 0.78053933 1.567795e-38
-0.15557975 0.22924529 0.78170532 1.5862341e-38
-0.15362149 0.22950308 0.78258437 1.6046733e-38
-0.15153754 0.22957766 0.7828387 1.6323319e-38
-0.14961581 0.2299037 0.78395045 1.6783575e-38
-0.14754069 0.23000003 0.78427893 1.7243834e-38
-0.14527567 0.22979882 0.78359282 1.7151638e-38
-0.14316237 0.2298352 0.78371686 1.7796286e-38
-0.14111328 0.22997729 0.78420138 1.8073229e-38
-0.13899866 0.23001532 0.78433108 1.8348737e-38
-0.13671833 0.22977605 0.78351521 1.8533128e-38
-0.13397786 0.2287436 0.77999461 1.8625324e-38
-0.13166818 0.22842516 0.77890879 1.8717519e-38
-0.12919478 0.22780764 0.77680308 1.8994106e-38
-0.12679254 0.22729707 0.77506208 1.9086302e-38
-0.12462054 0.22718897 0.77469349 1.9178497e-38
-0.12261502 0.22738586 0.77536488 1.90863e-38
-0.12071723 0.22779298 0.77675307 1.9178496e-38
-0.11845641 0.22751732 0.7758131 1.9270692e-38
-0.11599784 0.22684494 0.77352035 1.8994105e-38
-0.11379629 0.22665957 0.77288824 1.8994105e-38
-0.11162115 0.22652082 0.77241516 1.8994105e-38
-0.10951649 0.22652252 0.77242094 1.8901909e-38
-0.10740656 0.22651316 0.77238905 1.8809713e-38
-0.10533225 0.22658007 0.77261716 1.8809713e-38
-0.10314836 0.22640915 0.77203435 1.8625322e-38
-0.10097157 0.22624706 0.77148163 1.8717874e-38
-0.098968796 0.22647625 0.77226317 1.8533482e-38
-0.09721534 0.22729835 0.77506644 1.8441287e-38
-0.095400572 0.22801042 0.77749455 1.8532764e-38
-0.093473151 0.2284795 0.7790941 1.8532764e-38
-0.091383465 0.22856455 0.77938408 1.8348372e-38
-0.089175589 0.22835098 0.77865583 1.8348372e-38
-0.086959824 0.22810632 0.77782154 1.8163981e-38
-0.084837504 0.22810067 0.77780229 1.8256177e-38
-0.082415022 0.22726698 0.7749595 1.8071783e-38
-0.08033064 0.22734633 0.77523005 1.8071783e-38
-0.078256778 0.22746053 0.77561951 1.8163978e-38
-0.076412164 0.22826591 0.77836573 1.7887391e-38
-0.074026436 0.22745465 0.77559942 1.7887394e-38
-0.071709253 0.22681251 0.77340978 1.7703003e-38
-0.069455922 0.22633952 0.77179694 1.7703003e-38
-0.06734886 0.22632855 0.77175951 1.7610804e-38
-0.065208808 0.22620243 0.77132946 1.7610804e-38
-0.063089862 0.22614354 0.77112865 1.7334936e-38
-0.060949981 0.22600299 0.77064937 1.7519328e-38
-0.058896478 0.22618411 0.771267 1.7334936e-38
-0.056703206 0.22582202 0.77003229 1.7242022e-38
-0.054525599 0.22549686 0.76892352 1.7518609e-38
-0.05235697 0.22518432 0.76785779 1.7518609e-38
-0.050272748 0.22522391 0.76799279 1.7887391e-38
-0.048241209 0.2255132 0.76897925 1.7703e-38
-0.046146568 0.22552042 0.76900387 1.7610804e-38
-0.044110883 0.22583014 0.77006 1.7426413e-38
-0.042068645 0.22613558 0.77110153 1.7426413e-38
-0.039964635 0.22612363 0.77106076 1.7518609e-38
-0.037871335 0.22617432 0.77123362 1.7610807e-38
-0.035696801 0.22571731 0.76967525 1.7518612e-38
-0.033611137 0.22580028 0.76995814 1.7242025e-38
-0.031463869 0.22545284 0.76877344 1.733422e-38
-0.029336972 0.22521223 0.76795298 1.7518612e-38
-0.027274938 0.22547083 0.76883477 1.733422e-38
-0.025239157 0.22600757 0.77066499 1.7518612e-38
-0.023204196 0.22664978 0.77285486 1.7610807e-38
-0.021106007 0.22674097 0.77316582 1.7703003e-38
-0.019004844 0.22681692 0.7734248 1.7703003e-38
-0.016908208 0.22697259 0.77395564 1.797959e-38
-0.014792702 0.22688322 0.77365088 1.8071785e-38
-0.012676534 0.22675231 0.77320451 1.797959e-38
-0.010558541 0.22652999 0.77244639 1.8163981e-38
-0.0084311171 0.22594421 0.77044892 1.8164344e-38
-0.006316985 0.22544415 0.76874381 1.8440931e-38
-0.004212338 0.22495419 0.76707309 1.8533126e-38
-0.002117889 0.22457981 0.76579648 1.8717518e-38
-3.0399673e-05 0.22420637 0.76452309 1.90863e-38
0.0020509781 0.22392364 0.76355898 1.90863e-38
0.0041341446 0.22402263 0.76389652 1.9178496e-38
0.0062258346 0.22436246 0.76505536 1.9178496e-38
0.0083137928 0.22443102 0.76528913 1.9547278e-38
0.010397145 0.22437268 0.76509023 1.9639474e-38
0.01245567 0.22388759 0.76343608 1.9639474e-38
0.014520456 0.2236378 0.76258433 1.9823865e-38
0.016595706 0.22359155 0.76242661 1.9916061e-38
0.018658483 0.22340626 0.76179475 1.9916061e-38
0.020752897 0.22359893 0.76245177 2.0100452e-38
0.022837387 0.22365934 0.76265776 2.0285199e-38
0.024972809 0.22416687 0.76438838 2.0192648e-38
0.027062377 0.2242163 0.76455694 2.0192648e-38
0.029134879 0.2241274 0.7642538 2.0192648e-38
0.031160032 0.22371042 0.76283193 2.0192648e-38
0.033222787 0.22359869 0.76245093 2.0284843e-38
0.035243966 0.22323674 0.76121676 2.0377039e-38
0.037349459 0.22341941 0.76183963 2.0469591e-38
0.039402835 0.22328751 0.76138985 2.0377395e-38
0.041506693 0.22344056 0.76191175 2.0285197e-38
0.043607738 0.22356459 0.7623347 2.0469588e-38
0.045664024 0.22345833 0.76197237 2.0468869e-38
0.047802128 0.22374427 0.76294738 2.0376673e-38
0.049852673 0.22361363 0.7625019 2.0561065e-38
0.051958889 0.22373314 0.76290941 2.0468869e-38
0.05408524 0.22392683 0.76356989 2.0561067e-38
0.056183752 0.22399518 0.76380295 2.0561065e-38
0.058368664 0.2243908 0.76515198 2.0469225e-38
0.060356073 0.22402602 0.76390815 2.0653616e-38
0.062396761 0.22387677 0.76339918 2.0469225e-38
0.064340971 0.22340214 0.76178074 2.0377389e-38
0.066402882 0.22335312 0.76161355 2.0285194e-38
0.068525411 0.22350474 0.76213056 1.9916411e-38
0.070630074 0.22359091 0.76242441 1.9824216e-38
0.07260704 0.22327945 0.76136237 1.9547269e-38
0.074574538 0.222957 0.76026285 1.9454717e-38
0.076533951 0.22262846 0.75914258 1.9270326e-38
0.0786056 0.22263511 0.75916523 1.917813e-38
0.080597714 0.22242193 0.75843829 1.8809704e-38
0.082619578 0.22229944 0.75802064 1.8717508e-38
